31.9640293121338	27.9096736907959	27.9096736907959	25.027868270874	23.7766361236572	23.7766361236572	23.3619766235352	23.3637180328369	23.4679718017578	23.3750762939453	23.201078414917	22.9698085784912	22.6436672210693	21.9482173919678	21.9482173919678	21.3656978607178	21.3006553649902	21.3006553649902	21.3801021575928	21.3348541259766	21.3348541259766	21.2164821624756	21.7975311279297	22.7185535430908	22.7185535430908	23.9921817779541	23.9921817779541	25.4332637786865	25.4332637786865	25.9703350067139	26.0927791595459	25.170934677124	25.170934677124	24.2484569549561	23.655632019043	22.544584274292	22.544584274292	21.7093353271484	21.5256595611572	21.2964305877686	21.1273288726807	21.1273288726807	20.736795425415	21.2972736358643	21.2902641296387	21.2902641296387	21.4084377288818	21.5491237640381	22.2384586334229	22.2500591278076	22.3137760162354	22.3137760162354	21.4269008636475	21.4269008636475	20.950855255127	20.950855255127	20.950855255127	20.7275543212891	20.4110260009766	20.4110260009766	19.8702545166016	19.7053089141846	19.7053089141846	19.8483371734619	19.8483371734619	20.2199306488037	21.5294246673584	21.5294246673584	22.4940357208252	22.4940357208252	25.0171813964844	26.3683376312256	26.3683376312256	30.0301532745361	30.0301532745361	32.1342811584473	32.1342811584473	34.0077514648438	35.6441955566406	35.6441955566406	37.1142387390137	37.1142387390137	38.2225074768066	39.3754425048828	39.3754425048828	40.5983695983887	40.5983695983887	41.1650238037109	41.1650238037109	41.6787223815918	41.6787223815918	42.2479362487793	42.2479362487793	42.7941131591797	42.7941131591797	43.2094764709473	43.2094764709473	43.5377082824707	43.5377082824707	43.8668632507324	43.8668632507324	44.2072906494141	44.2072906494141	44.5020866394043	44.5020866394043	44.7080841064453	44.7080841064453	44.8925743103027	44.8925743103027	45.1718902587891	45.1718902587891	45.1718902587891	45.5762062072754	45.5762062072754	46.0476341247559	46.0476341247559	46.8325691223145	46.8325691223145	47.334716796875	47.0965995788574	47.0965995788574	47.6268157958984	47.6268157958984	47.7729911804199	48.1054496765137	48.1054496765137	48.477237701416	48.477237701416	48.6783103942871	48.6783103942871	48.6783103942871	48.6899452209473	48.6899452209473	48.6899452209473	48.5200614929199	48.5200614929199	48.1192512512207	48.1192512512207	47.7901611328125	47.6648979187012	47.2669258117676	47.2669258117676	46.3828544616699	46.3828544616699	46.0187492370605	46.0187492370605	45.7514038085938	45.7514038085938	45.4308166503906	45.4308166503906	45.3774108886719	45.697021484375	45.7620239257813	45.7620239257813	45.8735694885254	45.8735694885254	45.8320922851563	45.8320922851563	45.7166900634766	45.3837623596191	45.3837623596191	45.0094909667969	45.0094909667969	44.6687889099121	44.6687889099121	44.1682929992676	44.1682929992676	44.0211029052734	44.0211029052734	43.6135597229004	43.6135597229004	43.8204956054688	43.4566459655762	43.4566459655762	43.3238868713379	43.3238868713379	42.9705848693848
31.9640293121338	27.4337902069092	26.038782119751	26.038782119751	24.437406539917	23.693696975708	23.5140285491943	23.5140285491943	23.5973300933838	23.3750762939453	23.201078414917	23.201078414917	22.6555194854736	22.361328125	21.8463287353516	21.6312561035156	21.8788890838623	22.1220760345459	22.1220760345459	22.0637226104736	21.6744747161865	21.6744747161865	21.7373733520508	22.244779586792	23.2927398681641	23.2927398681641	24.4188461303711	25.0876007080078	25.028450012207	25.3457927703857	25.4429531097412	25.4429531097412	24.3350219726563	23.9222469329834	22.9147720336914	22.4278259277344	21.7093353271484	21.7093353271484	21.5256595611572	21.6265201568604	21.5398712158203	21.5398712158203	21.4582004547119	21.2972736358643	22.0722408294678	22.0722408294678	22.0982761383057	22.2384586334229	22.2384586334229	22.6080417633057	22.6080417633057	22.3137760162354	22.3745021820068	21.9169826507568	21.5543460845947	21.5543460845947	21.3935775756836	20.7275543212891	20.4110260009766	20.6904392242432	19.8702545166016	19.8702545166016	20.0842914581299	20.1498012542725	20.1498012542725	20.744649887085	21.174991607666	21.174991607666	22.6020412445068	22.6020412445068	23.5506153106689	25.3064670562744	25.3064670562744	27.7811641693115	27.7811641693115	30.1034145355225	32.3065528869629	32.3065528869629	34.2708396911621	34.2708396911621	37.1142387390137	37.1142387390137	38.448657989502	38.448657989502	39.3754425048828	40.302562713623	40.302562713623	40.9935188293457	40.9935188293457	41.5705833435059	41.5705833435059	42.1588668823242	42.1588668823242	42.7941131591797	42.7941131591797	43.2094764709473	43.2094764709473	43.5177803039551	43.5377082824707	43.8668632507324	43.8668632507324	44.2072906494141	44.2072906494141	44.5020866394043	44.5020866394043	44.9451026916504	44.9451026916504	45.179141998291	45.179141998291	45.4695281982422	45.4695281982422	45.4695281982422	45.8740425109863	45.8740425109863	46.3431205749512	46.3431205749512	46.8325691223145	46.8325691223145	47.334716796875	47.334716796875	47.334716796875	47.8266792297363	47.8266792297363	48.1054496765137	48.1054496765137	48.1054496765137	48.614990234375	48.614990234375	48.7768058776855	48.7768058776855	48.7768058776855	48.7421531677246	48.7421531677246	48.5101928710938	48.5101928710938	48.5101928710938	48.1192512512207	48.1192512512207	47.7901611328125	47.7901611328125	47.2669258117676	47.2669258117676	46.3828544616699	46.3828544616699	45.9947700500488	45.9947700500488	45.7514038085938	45.4005088806152	45.4308166503906	45.4308166503906	45.3774108886719	45.3774108886719	45.4170875549316	45.4170875549316	45.4752044677734	45.8735694885254	45.8320922851563	45.8320922851563	45.3837623596191	45.3837623596191	45.0316200256348	45.0316200256348	44.6687889099121	44.6687889099121	44.6687889099121	44.1682929992676	44.1682929992676	44.0211029052734	44.0211029052734	43.8204956054688	43.8204956054688	43.6948585510254	43.6948585510254	43.6948585510254	43.4029273986816	43.4029273986816	43.2223777770996
31.0428218841553	28.8562717437744	26.0564804077148	26.0564804077148	24.7592315673828	24.0855865478516	23.7671966552734	23.7462482452393	23.5973300933838	23.5338191986084	23.3177642822266	23.0983448028564	23.0983448028564	22.361328125	21.8463287353516	21.9615535736084	21.9615535736084	22.3901271820068	22.5640697479248	22.5640697479248	22.2063598632813	21.808988571167	22.0940780639648	22.3764629364014	23.1948184967041	23.1948184967041	24.4188461303711	25.028450012207	25.028450012207	24.7651805877686	24.7398986816406	24.3350219726563	24.3350219726563	23.9222469329834	22.9773273468018	22.1038112640381	21.8049716949463	21.8049716949463	21.610315322876	21.6265201568604	22.2441005706787	21.5398712158203	22.2088317871094	22.1636257171631	22.0722408294678	22.0722408294678	22.7952976226807	22.7947940826416	22.7947940826416	23.0576419830322	23.0576419830322	22.3745021820068	22.3745021820068	22.0132598876953	22.0132598876953	21.7842025756836	21.7842025756836	21.3935775756836	20.6904392242432	20.6904392242432	20.4048004150391	20.4048004150391	20.0842914581299	20.6846160888672	20.6846160888672	20.744649887085	21.174991607666	21.174991607666	22.6020412445068	22.6020412445068	23.606969833374	25.3064670562744	25.6719264984131	27.7811641693115	27.8788547515869	30.1034145355225	30.2101898193359	32.3065528869629	34.2708396911621	34.2708396911621	36.0002861022949	36.0002861022949	37.544734954834	37.544734954834	39.5900840759277	39.5900840759277	40.4733085632324	40.9935188293457	40.9935188293457	41.5705833435059	41.5705833435059	42.1588668823242	42.1588668823242	42.7225189208984	42.7225189208984	43.1649971008301	43.1649971008301	43.5177803039551	43.5177803039551	43.8711090087891	43.8711090087891	44.2641448974609	44.2641448974609	44.6492156982422	44.6492156982422	44.9451026916504	44.9451026916504	45.179141998291	45.179141998291	45.4460754394531	45.4695281982422	45.8055534362793	45.8740425109863	46.2491874694824	46.3431205749512	46.7196006774902	46.7196006774902	47.1999397277832	47.1999397277832	47.334716796875	47.6819648742676	47.8266792297363	47.8266792297363	48.1419639587402	48.2745475769043	48.2745475769043	48.614990234375	48.614990234375	48.7891120910645	48.7768058776855	48.8418731689453	48.7421531677246	48.7421531677246	48.6783256530762	48.5101928710938	48.2967720031738	48.2967720031738	47.7901611328125	47.7901611328125	47.7901611328125	46.900634765625	46.900634765625	46.4345588684082	46.3828544616699	45.9947700500488	45.9947700500488	45.4005088806152	45.4005088806152	45.1947822570801	45.1947822570801	45.3774108886719	45.3774108886719	45.4170875549316	45.4170875549316	45.4752044677734	45.4752044677734	45.4013671875	45.4013671875	45.1838874816895	45.3837623596191	45.0316200256348	45.0316200256348	44.363109588623	44.363109588623	44.363109588623	44.166015625	44.1682929992676	44.0211029052734	44.0211029052734	43.8204956054688	43.8204956054688	43.6948585510254	43.6948585510254	43.6948585510254	43.4029273986816	43.4029273986816	43.2223777770996
32.7251853942871	28.4975891113281	27.092809677124	25.3673915863037	24.4903545379639	24.0855865478516	24.0070400238037	23.7462482452393	23.7097625732422	23.7097625732422	23.6677093505859	23.3307857513428	23.3307857513428	22.6129932403564	22.2989330291748	22.4434719085693	23.0633525848389	23.0633525848389	23.3827877044678	22.867223739624	22.867223739624	22.3581008911133	22.0940780639648	22.7523136138916	23.1948184967041	23.4507312774658	23.9753170013428	24.2884349822998	24.2884349822998	24.7651805877686	24.7398986816406	23.9547939300537	23.9547939300537	23.3919773101807	22.9773273468018	22.1038112640381	22.1038112640381	21.9587802886963	21.9587802886963	22.1616497039795	22.2441005706787	22.2441005706787	22.2088317871094	22.9666423797607	22.8822631835938	22.8822631835938	22.7952976226807	22.7952976226807	23.2559947967529	23.0576419830322	23.2258815765381	22.8370056152344	22.8370056152344	22.6009540557861	22.6009540557861	22.483512878418	21.7842025756836	21.7136554718018	21.3270454406738	21.3270454406738	20.8022327423096	20.8022327423096	20.6506195068359	20.6846160888672	20.6846160888672	20.9078731536865	21.528528213501	21.528528213501	21.9909610748291	21.9909610748291	23.606969833374	23.606969833374	25.6719264984131	27.8788547515869	27.8788547515869	30.2101898193359	30.2101898193359	32.4427909851074	32.4427909851074	34.4382820129395	34.4382820129395	36.2046241760254	37.544734954834	37.544734954834	38.8709983825684	38.8709983825684	40.4733085632324	40.4733085632324	41.1457824707031	41.1457824707031	41.7532577514648	41.7532577514648	42.3584022521973	42.3584022521973	42.8777313232422	42.8777313232422	43.273738861084	43.273738861084	43.62744140625	43.62744140625	44.0204772949219	44.0204772949219	44.4611206054688	44.4611206054688	44.6492156982422	44.8629913330078	45.1669425964355	45.1669425964355	45.4460754394531	45.4460754394531	45.8055534362793	45.8055534362793	45.8055534362793	46.2491874694824	46.2491874694824	46.7196006774902	46.7196006774902	47.4143829345703	47.4143829345703	47.6819648742676	47.6819648742676	47.6819648742676	48.1419639587402	48.1419639587402	48.2745475769043	48.5375366210938	48.5375366210938	48.7891120910645	48.7891120910645	48.7891120910645	48.8418731689453	48.8418731689453	48.6783256530762	48.6783256530762	48.6783256530762	48.2967720031738	48.2967720031738	47.5501747131348	47.5501747131348	47.5501747131348	46.900634765625	46.4345588684082	46.4345588684082	46.4345588684082	45.6158866882324	45.6158866882324	45.4005088806152	45.1947822570801	45.1947822570801	45.1947822570801	44.952320098877	44.952320098877	44.9269905090332	45.4170875549316	45.4752044677734	45.4752044677734	45.4013671875	45.4013671875	45.1838874816895	45.1838874816895	44.4708862304688	44.4708862304688	44.363109588623	44.363109588623	44.363109588623	44.166015625	44.166015625	43.9744873046875	43.9744873046875	43.8977546691895	43.8977546691895	43.7028160095215	43.7028160095215	43.5436401367188	43.5436401367188	43.4029273986816	43.2168769836426
30.1717681884766	30.1717681884766	27.1150226593018	25.4603786468506	24.4903545379639	24.0070400238037	24.3334102630615	24.0102367401123	24.0372619628906	24.0212173461914	24.0212173461914	23.9037113189697	23.1396255493164	22.6524868011475	22.6524868011475	23.0340328216553	23.0340328216553	23.6140155792236	23.3827877044678	23.6673793792725	22.8844470977783	22.8844470977783	22.4611587524414	22.9265441894531	23.2506999969482	23.2506999969482	23.9040584564209	23.9040584564209	23.8744297027588	24.0338363647461	24.087646484375	24.087646484375	23.9547939300537	23.496187210083	22.8657989501953	22.4792308807373	21.9697666168213	21.9697666168213	21.9587802886963	22.7505931854248	23.047758102417	23.047758102417	23.0941600799561	22.9666423797607	22.9666423797607	23.5678768157959	23.4548740386963	23.7858734130859	23.7858734130859	23.7858734130859	23.2258815765381	23.2258815765381	22.9671802520752	22.9671802520752	22.8413524627686	22.483512878418	22.483512878418	21.7136554718018	21.3270454406738	21.6808547973633	20.8022327423096	20.9108180999756	20.9108180999756	20.9793567657471	20.9793567657471	21.3650283813477	21.3650283813477	21.528528213501	21.9909610748291	22.2172698974609	22.8846969604492	22.8846969604492	24.1400852203369	26.0164432525635	26.0164432525635	28.1721897125244	28.1721897125244	30.6065521240234	30.6065521240234	34.4382820129395	36.2046241760254	36.2046241760254	37.7524261474609	37.7524261474609	38.8709983825684	39.0307464599609	39.920581817627	39.920581817627	40.7229652404785	40.7229652404785	41.4028396606445	41.4028396606445	42.0444984436035	42.3584022521973	42.8777313232422	42.8777313232422	43.273738861084	43.273738861084	43.62744140625	43.62744140625	44.0204772949219	44.0204772949219	44.4611206054688	44.4611206054688	44.8629913330078	44.8629913330078	45.1669425964355	45.1669425964355	45.6743774414063	45.6743774414063	46.0625495910645	46.0625495910645	46.5039710998535	46.5039710998535	46.5039710998535	46.9615020751953	46.9615020751953	47.4143829345703	47.4143829345703	47.8564643859863	47.8564643859863	47.8564643859863	48.2841644287109	48.2841644287109	48.1419639587402	48.5375366210938	48.5375366210938	48.7891120910645	48.7891120910645	48.9732322692871	48.9732322692871	48.9732322692871	48.7594566345215	48.7594566345215	48.7594566345215	48.242000579834	48.242000579834	47.8244934082031	47.5501747131348	47.0586128234863	47.0586128234863	46.4345588684082	46.4345588684082	45.6158866882324	45.6158866882324	45.2889671325684	45.2889671325684	45.2889671325684	44.7690238952637	44.952320098877	44.952320098877	44.9269905090332	44.9269905090332	44.9269905090332	44.9595832824707	44.9595832824707	44.9272193908691	45.4013671875	45.1838874816895	45.1838874816895	44.4708862304688	44.4708862304688	44.1430778503418	44.1430778503418	44.166015625	44.166015625	43.7872009277344	43.9744873046875	43.9744873046875	43.8977546691895	43.8977546691895	43.7028160095215	43.7028160095215	43.5436401367188	43.5436401367188	43.5436401367188	43.2168769836426
30.2290649414063	28.5771026611328	26.1716823577881	25.4603786468506	24.7335205078125	24.6551265716553	24.3334102630615	24.3575572967529	24.5600643157959	24.5860691070557	24.0212173461914	23.9037113189697	23.4874629974365	23.1662216186523	23.1662216186523	23.5140285491943	24.1336669921875	24.1336669921875	23.9058990478516	23.6673793792725	23.6956787109375	23.6956787109375	22.9177703857422	23.1690120697021	23.1690120697021	23.2506999969482	23.3754177093506	23.3754177093506	23.8744297027588	23.6234149932861	23.7025089263916	23.6462268829346	23.6462268829346	23.496187210083	22.8657989501953	22.7383499145508	22.5277252197266	22.5277252197266	22.5639324188232	22.7505931854248	23.8214206695557	23.047758102417	23.9452896118164	23.8629779815674	23.5678768157959	23.5678768157959	23.9842510223389	23.9842510223389	23.7858734130859	24.1185207366943	23.7568836212158	24.0004634857178	23.5996379852295	23.5996379852295	22.8413524627686	22.7418346405029	22.7418346405029	22.3626041412354	21.6808547973633	21.6808547973633	21.4416809082031	21.5783538818359	21.5783538818359	21.3864898681641	21.3864898681641	21.3650283813477	21.5553455352783	21.5553455352783	22.2172698974609	22.2172698974609	22.8846969604492	23.0523529052734	24.1400852203369	24.3869075775146	26.2030029296875	28.1721897125244	28.4323177337646	30.6065521240234	32.8976287841797	32.8976287841797	34.9532508850098	34.9532508850098	36.7254028320313	37.7524261474609	39.0307464599609	39.0307464599609	39.920581817627	40.0179786682129	40.7229652404785	40.7229652404785	41.4028396606445	41.4028396606445	42.0444984436035	42.0444984436035	42.5996513366699	42.5996513366699	43.0306053161621	43.0306053161621	43.4053955078125	43.4053955078125	43.8243293762207	43.8243293762207	44.3414459228516	44.3414459228516	44.8749885559082	44.8749885559082	45.3115196228027	45.3115196228027	45.6743774414063	45.6743774414063	45.9548377990723	46.0625495910645	46.3858337402344	46.5039710998535	46.8398094177246	46.9615020751953	47.2889099121094	47.2889099121094	47.7236518859863	47.7236518859863	47.8564643859863	48.143383026123	48.2841644287109	48.2841644287109	48.5450744628906	48.6658592224121	48.6658592224121	48.9211158752441	48.9211158752441	49.0401649475098	48.9732322692871	48.9732322692871	48.954647064209	48.7594566345215	48.5365562438965	48.5365562438965	48.242000579834	47.8244934082031	47.8244934082031	47.0586128234863	47.0586128234863	46.0583457946777	46.0583457946777	45.6277503967285	45.6277503967285	45.2889671325684	45.2889671325684	44.7690238952637	44.7690238952637	44.5799560546875	44.5799560546875	44.9269905090332	44.9269905090332	44.9595832824707	44.9595832824707	44.9272193908691	44.9272193908691	44.9272193908691	44.5025939941406	44.5025939941406	44.1417388916016	44.4708862304688	44.1430778503418	44.1430778503418	43.7872009277344	43.7872009277344	43.7872009277344	43.7428703308105	43.7428703308105	43.7175750732422	43.7175750732422	43.6482696533203	43.7028160095215	43.5436401367188	43.5436401367188	43.4052848815918	43.2590675354004
32.6683387756348	28.7832698822021	26.2444763183594	25.0953845977783	25.0953845977783	24.6551265716553	24.9450664520264	24.9450664520264	25.1205444335938	24.5860691070557	24.2411193847656	24.2411193847656	24.0160350799561	23.4745693206787	23.4991683959961	23.5140285491943	24.0629940032959	24.1336669921875	24.6709442138672	24.2003688812256	23.6956787109375	23.9611186981201	23.5177154541016	23.4053039550781	23.4053039550781	23.2466430664063	23.2466430664063	23.2443141937256	23.3589496612549	23.6234149932861	23.7025089263916	23.6755905151367	23.5727081298828	23.5727081298828	23.356969833374	22.7383499145508	22.5277252197266	23.1883373260498	23.1883373260498	23.6067047119141	23.8214206695557	23.8214206695557	23.9452896118164	24.5746326446533	24.3639087677002	24.3639087677002	24.6559600830078	24.6559600830078	24.7828731536865	24.1185207366943	24.0004634857178	24.0004634857178	23.5996379852295	23.9014587402344	23.5094013214111	22.7418346405029	22.7418346405029	22.3626041412354	22.4180507659912	21.6808547973633	21.857551574707	21.5783538818359	21.5783538818359	21.3864898681641	21.3864898681641	21.5489101409912	21.5489101409912	21.9408702850342	22.14035987854	22.14035987854	23.0523529052734	23.0523529052734	24.3869075775146	24.3869075775146	26.2030029296875	26.2030029296875	28.4323177337646	30.8939456939697	30.8939456939697	33.2082557678223	33.2082557678223	35.2663383483887	36.7254028320313	36.7254028320313	38.1363220214844	38.1363220214844	40.0179786682129	40.0179786682129	40.7973518371582	40.7973518371582	41.4945449829102	41.4945449829102	42.0444984436035	42.1305351257324	42.5996513366699	42.6437873840332	43.0306053161621	43.0526008605957	43.4053955078125	43.4529151916504	43.8243293762207	43.9483222961426	44.3414459228516	44.3414459228516	44.8749885559082	44.8749885559082	45.3115196228027	45.5520210266113	45.5520210266113	45.9548377990723	45.9548377990723	46.3858337402344	46.3858337402344	46.3858337402344	46.8398094177246	46.8398094177246	47.2889099121094	47.2889099121094	47.7236518859863	47.7236518859863	48.143383026123	48.143383026123	48.143383026123	48.5450744628906	48.5450744628906	48.6658592224121	48.6658592224121	48.875316619873	48.9211158752441	49.0401649475098	49.0401649475098	48.954647064209	48.954647064209	48.954647064209	48.5365562438965	48.5365562438965	47.8244934082031	47.8244934082031	47.8244934082031	46.74267578125	46.74267578125	46.2084770202637	46.0583457946777	45.6277503967285	45.6277503967285	44.8901863098145	44.8901863098145	44.5759696960449	44.7690238952637	44.5799560546875	44.5799560546875	44.3690299987793	44.3690299987793	44.343505859375	44.343505859375	44.9272193908691	44.9272193908691	44.5025939941406	44.5025939941406	44.5025939941406	44.1417388916016	44.1417388916016	43.5010719299316	43.5010719299316	43.34228515625	43.7872009277344	43.7428703308105	43.7428703308105	43.7428703308105	43.7175750732422	43.7175750732422	43.6482696533203	43.6482696533203	43.4052848815918	43.4052848815918	43.4052848815918	43.2590675354004
32.8532638549805	28.7832698822021	27.3939819335938	25.266752243042	25.266752243042	25.0952758789063	25.3610687255859	25.8516235351563	25.8516235351563	25.1102142333984	24.8827667236328	24.3121356964111	24.3121356964111	23.8972148895264	23.4991683959961	24.434965133667	24.0629940032959	24.6674823760986	25.1981506347656	24.9660949707031	24.9660949707031	23.9611186981201	23.7627792358398	23.7627792358398	23.45849609375	23.2181491851807	23.2181491851807	23.2443141937256	23.3316402435303	23.4367008209229	23.5990161895752	23.6755905151367	23.6755905151367	23.5727081298828	23.7028980255127	23.4708480834961	23.1411437988281	23.1411437988281	23.1883373260498	24.2939395904541	24.7464923858643	24.7464923858643	24.8239593505859	24.5746326446533	24.5746326446533	24.9226169586182	24.9226169586182	25.1219329833984	24.7828731536865	24.7828731536865	24.7825565338135	24.7825565338135	24.7104206085205	23.9014587402344	23.8256893157959	23.4159603118896	23.4159603118896	22.7131862640381	22.4180507659912	22.4180507659912	21.857551574707	21.8628921508789	21.8628921508789	21.6985874176025	21.8552341461182	21.8552341461182	21.8552341461182	21.9408702850342	22.14035987854	22.4848327636719	22.7294006347656	22.7294006347656	23.6328907012939	23.6328907012939	24.679895401001	26.6210269927979	26.6210269927979	29.0747241973877	30.8939456939697	33.2082557678223	33.2082557678223	35.2663383483887	35.2663383483887	36.9495506286621	36.9495506286621	38.1363220214844	39.2340698242188	39.2340698242188	40.10693359375	40.7973518371582	41.4945449829102	41.4945449829102	42.1305351257324	42.1305351257324	42.6437873840332	42.6437873840332	43.0526008605957	43.0526008605957	43.0526008605957	43.4529151916504	43.4529151916504	43.9483222961426	43.9483222961426	44.5415382385254	44.5415382385254	45.1016807556152	45.1016807556152	45.5520210266113	45.5520210266113	46.095272064209	46.095272064209	46.540699005127	46.540699005127	46.9953727722168	46.9953727722168	46.9953727722168	47.4436225891113	47.4436225891113	47.8606910705566	47.8606910705566	48.2531127929688	48.2531127929688	48.2531127929688	48.5450744628906	48.5450744628906	48.5450744628906	48.875316619873	48.875316619873	48.875316619873	49.0401649475098	49.0401649475098	49.0208168029785	49.0208168029785	48.4979591369629	48.4979591369629	48.4979591369629	47.6359825134277	47.6359825134277	47.6359825134277	46.74267578125	46.74267578125	46.2084770202637	46.2084770202637	45.6277503967285	45.2594261169434	44.8901863098145	44.8901863098145	44.5759696960449	44.5759696960449	44.0525169372559	44.0525169372559	44.3690299987793	44.3690299987793	44.343505859375	44.343505859375	44.2232971191406	44.2232971191406	44.0161552429199	44.0161552429199	44.1417388916016	44.1417388916016	44.1417388916016	43.5010719299316	43.5010719299316	43.34228515625	43.34228515625	43.3289375305176	43.3289375305176	43.3289375305176	43.7175750732422	43.7175750732422	43.6482696533203	43.6482696533203	43.4052848815918	43.4052848815918	43.4052848815918	43.2590675354004
30.6201572418213	30.6201572418213	27.3939819335938	25.7045383453369	25.3450393676758	25.3450393676758	26.1118412017822	26.4269161224365	25.8152828216553	25.8152828216553	25.1725254058838	24.8269805908203	24.2062129974365	23.8972148895264	24.1237640380859	24.434965133667	24.9930057525635	25.1548538208008	25.1981506347656	24.9660949707031	25.3010845184326	24.8007965087891	24.2806377410889	24.2806377410889	23.45849609375	23.3369522094727	23.2343444824219	23.2343444824219	23.3316402435303	23.6356639862061	23.7188854217529	23.8833312988281	23.8833312988281	23.9304904937744	23.7028980255127	23.4708480834961	23.9283142089844	23.9283142089844	24.0622310638428	24.2939395904541	24.7464923858643	24.7464923858643	25.6044826507568	25.437463760376	25.437463760376	25.6742706298828	25.6742706298828	25.1219329833984	25.1219329833984	25.2033290863037	25.2033290863037	25.19069480896	24.7104206085205	24.7104206085205	23.8256893157959	23.4159603118896	23.4969921112061	23.4969921112061	22.8564052581787	22.8564052581787	22.5350818634033	22.4669933319092	21.8628921508789	22.0433502197266	22.0375747680664	21.8552341461182	22.1405963897705	22.2104110717773	22.4848327636719	22.4848327636719	22.7294006347656	22.7294006347656	23.6328907012939	23.6328907012939	24.679895401001	26.6210269927979	26.6210269927979	29.0747241973877	29.0747241973877	31.5184459686279	31.5184459686279	34.0619697570801	34.0619697570801	36.9495506286621	36.9495506286621	38.2422485351563	38.2422485351563	39.2340698242188	40.10693359375	40.10693359375	40.8707618713379	40.8707618713379	41.5652770996094	41.5652770996094	42.1514472961426	42.1514472961426	42.6454467773438	42.6454467773438	43.1212577819824	43.1212577819824	43.6774597167969	43.6774597167969	43.6774597167969	44.356388092041	44.356388092041	45.0455169677734	45.0455169677734	45.6224670410156	45.6224670410156	46.095272064209	46.095272064209	46.540699005127	46.540699005127	46.8144035339355	46.9953727722168	46.9953727722168	47.4436225891113	47.7061347961426	47.7061347961426	48.1032371520996	48.1032371520996	48.2531127929688	48.4860801696777	48.6372566223145	48.6372566223145	48.6372566223145	48.9689483642578	48.9689483642578	49.1398735046387	49.1398735046387	49.1398735046387	49.0208168029785	49.0208168029785	48.7870330810547	48.4979591369629	48.4979591369629	48.0148963928223	47.6359825134277	47.045726776123	47.045726776123	46.2084770202637	46.2084770202637	46.2084770202637	45.2594261169434	45.2594261169434	44.8487854003906	44.8901863098145	44.5759696960449	44.5759696960449	44.0525169372559	44.0525169372559	43.8669128417969	43.8669128417969	44.343505859375	44.343505859375	44.2232971191406	44.2232971191406	44.0161552429199	44.0161552429199	43.3482475280762	43.3482475280762	43.3482475280762	43.0353889465332	43.5010719299316	43.34228515625	43.34228515625	43.3289375305176	43.3289375305176	43.3803825378418	43.3803825378418	43.3803825378418	43.3765563964844	43.3765563964844	43.2927398681641	43.2927398681641	43.0774993896484	43.0774993896484
31.0881423950195	29.5111389160156	27.6538677215576	25.9801006317139	25.8813629150391	26.3823699951172	26.1118412017822	26.4269161224365	26.2876682281494	25.8723545074463	25.8723545074463	24.8269805908203	24.2062129974365	24.2134628295898	24.2134628295898	24.5105895996094	24.9930057525635	25.8351669311523	25.8750019073486	26.0624923706055	25.3010845184326	24.8752517700195	24.2806377410889	24.2919921875	23.8273258209229	23.8328914642334	23.3369522094727	23.5989818572998	23.5816402435303	23.6356639862061	23.7188854217529	24.1789264678955	23.8833312988281	24.361837387085	24.3499851226807	24.0473937988281	23.9283142089844	23.9283142089844	24.0622310638428	25.2930679321289	25.5309066772461	25.5309066772461	25.6044826507568	25.9783954620361	25.9783954620361	25.6742706298828	26.1300411224365	25.8443603515625	26.3871383666992	26.085168838501	26.085168838501	25.19069480896	25.1063003540039	25.1063003540039	24.6136226654053	23.8205318450928	23.8205318450928	23.4969921112061	23.6854305267334	22.8564052581787	22.8599872589111	22.4669933319092	22.4669933319092	22.0433502197266	22.0375747680664	22.0375747680664	22.1405963897705	22.2104110717773	22.7596797943115	22.7596797943115	22.9643478393555	22.9643478393555	23.1566925048828	23.1566925048828	24.8377914428711	24.8377914428711	26.9760417938232	26.9760417938232	29.3885955810547	29.3885955810547	32.0590705871582	34.0619697570801	34.4397010803223	35.8682136535645	35.8682136535645	38.2422485351563	38.2422485351563	39.2486419677734	39.2486419677734	40.0886421203613	40.0886421203613	40.8554573059082	40.8554573059082	41.5652770996094	41.5420532226563	42.1514472961426	42.6454467773438	42.6454467773438	43.1212577819824	43.1212577819824	43.2218055725098	43.6774597167969	43.885425567627	44.356388092041	44.356388092041	45.0455169677734	45.0455169677734	45.6224670410156	45.6224670410156	45.8852577209473	46.3578491210938	46.3578491210938	46.8144035339355	46.8144035339355	46.9953727722168	47.2717781066895	47.2717781066895	47.7061347961426	47.7061347961426	48.1032371520996	48.1032371520996	48.4860801696777	48.4860801696777	48.4860801696777	48.6372566223145	48.8516807556152	48.9689483642578	48.9689483642578	49.1144561767578	49.1398735046387	49.1391105651855	49.1391105651855	48.7870330810547	48.7870330810547	48.7870330810547	48.0148963928223	48.0148963928223	48.0148963928223	47.045726776123	47.045726776123	45.8720207214355	45.8720207214355	45.8720207214355	45.2594261169434	44.8487854003906	44.8487854003906	44.8487854003906	44.1020545959473	44.1020545959473	44.0525169372559	44.0525169372559	43.8669128417969	43.8669128417969	43.671875	43.671875	43.5840339660645	43.5840339660645	44.0161552429199	44.0161552429199	43.3482475280762	43.3482475280762	43.0353889465332	43.0353889465332	43.0353889465332	42.7546081542969	42.7546081542969	42.785587310791	43.3289375305176	43.3803825378418	43.3803825378418	43.3803825378418	43.3765563964844	43.3765563964844	43.2927398681641	43.2927398681641	43.0774993896484	43.0774993896484
33.6844787597656	29.5111389160156	26.7799243927002	26.078634262085	26.078634262085	26.3823699951172	27.4761047363281	27.0799236297607	26.9770183563232	26.1507472991943	26.1507472991943	25.1358165740967	24.7171096801758	24.7858200073242	25.1893711090088	25.1893711090088	25.480504989624	25.8351669311523	26.4043521881104	26.0624923706055	26.0624923706055	25.5173816680908	25.5173816680908	24.2919921875	24.0829162597656	23.8328914642334	23.8328914642334	23.5989818572998	24.1457195281982	24.0946807861328	24.0910511016846	24.1789264678955	24.1789264678955	24.361837387085	24.3499851226807	24.8810176849365	24.7441730499268	24.7441730499268	24.8308963775635	25.2930679321289	26.4160461425781	26.4160461425781	26.4121551513672	26.6781158447266	26.6781158447266	26.7506465911865	26.1300411224365	26.3871383666992	26.3871383666992	26.085168838501	26.6488189697266	26.1751155853271	26.1751155853271	25.1063003540039	24.6136226654053	24.7132320404053	24.7132320404053	24.0308780670166	23.6854305267334	23.6854305267334	22.8599872589111	22.4669933319092	22.7264347076416	22.4670925140381	22.4181537628174	22.5017395019531	22.5017395019531	22.6847476959229	22.6847476959229	22.7596797943115	23.17746925354	22.9643478393555	23.1566925048828	23.1827945709229	23.8275909423828	23.8275909423828	25.5039157867432	25.5039157867432	29.3885955810547	29.3885955810547	32.0590705871582	32.0590705871582	34.4397010803223	35.8682136535645	35.9845161437988	37.1717796325684	37.1717796325684	38.2139434814453	38.2139434814453	40.0886421203613	40.0886421203613	40.8554573059082	40.8554573059082	41.5420532226563	41.5420532226563	42.1311149597168	42.1311149597168	42.6665840148926	42.6665840148926	43.2218055725098	43.2218055725098	43.885425567627	43.885425567627	43.885425567627	44.6336708068848	44.6336708068848	45.3258018493652	45.3258018493652	45.8852577209473	45.8852577209473	46.3578491210938	46.3578491210938	46.8144035339355	46.8144035339355	46.8144035339355	47.2717781066895	47.2717781066895	47.7405281066895	47.7405281066895	48.1406593322754	48.1406593322754	48.1406593322754	48.5302886962891	48.5302886962891	48.8516807556152	48.8516807556152	48.8516807556152	49.1144561767578	49.1144561767578	49.1144561767578	49.1391105651855	49.1391105651855	48.6429862976074	48.6429862976074	48.6429862976074	47.757869720459	47.757869720459	47.757869720459	46.7344017028809	46.7344017028809	46.0948829650879	45.8720207214355	45.3535575866699	45.3535575866699	44.8487854003906	44.8487854003906	44.1020545959473	44.1020545959473	44.1020545959473	43.7676658630371	43.7676658630371	43.2565307617188	43.2565307617188	43.671875	43.671875	43.5840339660645	43.5840339660645	43.1930541992188	43.1930541992188	42.8860054016113	42.8860054016113	43.0353889465332	43.0353889465332	42.7546081542969	42.7546081542969	42.7546081542969	42.785587310791	42.785587310791	42.9705810546875	42.9705810546875	42.9705810546875	43.036060333252	43.036060333252	42.9799613952637	42.9799613952637	42.9109344482422	42.9109344482422
34.8191566467285	30.1466846466064	27.2928905487061	26.6885738372803	26.6885738372803	27.0936279296875	27.4761047363281	27.3283023834229	27.3283023834229	26.1507472991943	25.7597503662109	25.1318683624268	25.1318683624268	24.7858200073242	25.7550258636475	25.1893711090088	26.2816162109375	26.4744338989258	27.1583461761475	26.4043521881104	26.2043380737305	25.4866390228271	25.4866390228271	24.855863571167	24.8455371856689	24.4806003570557	24.3493022918701	24.3493022918701	24.1457195281982	24.0946807861328	24.6142959594727	24.7336368560791	24.8693904876709	24.8693904876709	24.9515590667725	24.8810176849365	25.6486434936523	24.7441730499268	25.8389720916748	26.0694332122803	26.4160461425781	26.4160461425781	26.944860458374	26.944860458374	26.6781158447266	26.9945964813232	26.7506465911865	27.1707134246826	27.1707134246826	27.6517105102539	26.6488189697266	26.6360187530518	26.0474758148193	26.0474758148193	25.0965938568115	24.7132320404053	24.7132320404053	24.0308780670166	24.0988903045654	24.0988903045654	23.5947704315186	22.7264347076416	22.7264347076416	22.4670925140381	22.4181537628174	22.4181537628174	22.5017395019531	23.09836769104	23.2173709869385	23.2173709869385	23.17746925354	23.17746925354	23.1827945709229	23.1827945709229	23.8275909423828	23.8275909423828	25.5039157867432	25.6781368255615	27.4641284942627	30.7638378143311	30.7638378143311	33.3142356872559	33.3142356872559	35.9845161437988	35.9845161437988	37.1717796325684	37.1289024353027	38.2139434814453	38.2139434814453	39.1065330505371	39.1065330505371	39.9536056518555	39.9536056518555	40.7425727844238	40.7425727844238	41.4730110168457	41.4730110168457	42.2017478942871	42.6665840148926	42.9207954406738	42.9207954406738	43.6684417724609	43.6684417724609	43.885425567627	44.6336708068848	44.6336708068848	45.3258018493652	45.3258018493652	45.8976860046387	45.8976860046387	46.3990440368652	46.3990440368652	46.8545036315918	46.8545036315918	47.3089866638184	47.3089866638184	47.3089866638184	47.7405281066895	47.7405281066895	48.1406593322754	48.1406593322754	48.3347511291504	48.5302886962891	48.5302886962891	48.7266883850098	48.8968963623047	48.8968963623047	49.1425018310547	49.1425018310547	49.1425018310547	49.1077728271484	49.1077728271484	48.6429862976074	48.6429862976074	48.6429862976074	47.757869720459	47.757869720459	47.0676231384277	46.7344017028809	46.7344017028809	46.0948829650879	46.0948829650879	45.3535575866699	45.3535575866699	44.4047050476074	44.4047050476074	43.9721984863281	43.9721984863281	43.7676658630371	43.7676658630371	43.7676658630371	43.2565307617188	43.2565307617188	43.0870170593262	43.0870170593262	43.5840339660645	43.5840339660645	43.1930541992188	43.1930541992188	42.8860054016113	42.8860054016113	42.3487358093262	42.3487358093262	42.226734161377	42.226734161377	42.7546081542969	42.785587310791	42.785587310791	42.9705810546875	42.9705810546875	42.9705810546875	43.036060333252	43.036060333252	42.9799613952637	42.9799613952637	42.9109344482422	42.9109344482422
32.8583641052246	28.8023777008057	28.8023777008057	27.1030044555664	27.2025547027588	27.2025547027588	27.9728088378906	27.9279117584229	27.3283023834229	26.9173431396484	26.2500686645508	25.8106517791748	25.8106517791748	25.5378036499023	25.7550258636475	25.7550258636475	26.2816162109375	27.2682628631592	27.1583461761475	27.5585803985596	26.9464321136475	26.2168884277344	25.4866390228271	25.1538181304932	24.8455371856689	25.5515651702881	24.4806003570557	25.2382907867432	25.0520534515381	24.7011432647705	24.6142959594727	24.7336368560791	24.7336368560791	25.6275272369385	25.721549987793	25.666410446167	25.6486434936523	25.6486434936523	25.8389720916748	27.0327682495117	27.1415424346924	27.1415424346924	27.5347595214844	27.5347595214844	26.9945964813232	26.9945964813232	27.2485408782959	27.2485408782959	27.8716354370117	27.6517105102539	27.6517105102539	26.6360187530518	26.0474758148193	26.0474758148193	26.0706787109375	25.3556747436523	25.3556747436523	24.9968643188477	24.0988903045654	24.0988903045654	23.846923828125	23.3715801239014	22.8596725463867	22.8596725463867	22.8165073394775	22.9851741790771	22.9851741790771	23.09836769104	23.09836769104	23.2173709869385	23.5631103515625	23.5631103515625	23.3760929107666	23.2119388580322	23.2119388580322	24.1387023925781	24.1387023925781	25.6781368255615	27.2142486572266	28.6349048614502	30.7638378143311	31.6412715911865	33.3142356872559	34.6614723205566	34.6614723205566	37.1289024353027	37.1289024353027	37.1289024353027	38.0901222229004	39.1065330505371	38.9868011474609	39.9536056518555	39.863941192627	40.7425727844238	40.7425727844238	41.4730110168457	41.4730110168457	42.2017478942871	42.2017478942871	42.9207954406738	42.9207954406738	43.6684417724609	43.6684417724609	44.4743461608887	44.4743461608887	44.4743461608887	45.2550048828125	45.2550048828125	45.8976860046387	45.8976860046387	46.3990440368652	46.6219902038574	46.6219902038574	46.8545036315918	47.0726776123047	47.3089866638184	47.5152244567871	47.5152244567871	47.9325141906738	47.9325141906738	48.3347511291504	48.3347511291504	48.3347511291504	48.7266883850098	48.7266883850098	48.8968963623047	49.0422096252441	49.0422096252441	49.1425018310547	49.1365776062012	49.1077728271484	49.1077728271484	48.8454322814941	48.6429862976074	48.0968818664551	48.0968818664551	47.757869720459	47.0676231384277	47.0676231384277	46.0948829650879	46.0948829650879	46.0948829650879	44.9277992248535	44.9277992248535	44.3895874023438	44.4047050476074	43.9721984863281	43.9721984863281	43.2141723632813	43.2141723632813	43.2141723632813	43.2565307617188	43.0870170593262	43.0870170593262	43.0870170593262	42.846118927002	42.846118927002	42.6622886657715	43.1930541992188	42.8860054016113	42.8860054016113	42.3487358093262	42.3487358093262	42.226734161377	42.226734161377	42.2919998168945	42.2919998168945	42.2919998168945	42.4255523681641	42.4255523681641	43.036060333252	43.036060333252	42.6165885925293	42.6442985534668	42.9799613952637	42.9109344482422	42.6025238037109
33.9799461364746	29.7456378936768	29.7456378936768	27.9005832672119	27.8711490631104	28.2589263916016	28.2589263916016	28.3268756866455	27.2870178222656	27.2870178222656	26.2500686645508	26.3049163818359	25.8106517791748	26.4005126953125	26.7716522216797	26.7716522216797	27.0071105957031	28.0672702789307	27.5585803985596	27.5585803985596	26.9897289276123	26.9897289276123	26.2168884277344	26.0683269500732	25.6664733886719	25.5515651702881	25.5515651702881	25.2382907867432	25.0520534515381	25.6226596832275	25.3275775909424	25.3590450286865	25.6275272369385	25.6275272369385	25.721549987793	26.6545581817627	26.6407108306885	26.6407108306885	26.7443180084229	27.0327682495117	27.0327682495117	27.7275524139404	27.5347595214844	27.7514266967773	27.478006362915	27.478006362915	27.8417186737061	27.8417186737061	27.8716354370117	27.8716354370117	28.2157764434814	27.6737899780273	26.5288848876953	26.5288848876953	26.0706787109375	26.3898468017578	25.3556747436523	25.5341262817383	24.9816036224365	24.9816036224365	23.846923828125	23.3715801239014	22.8596725463867	22.8596725463867	22.8165073394775	23.4160747528076	23.4160747528076	23.6626739501953	23.6626739501953	23.7067432403564	23.5631103515625	23.5631103515625	23.3760929107666	23.3477802276611	23.3477802276611	23.6225357055664	24.4017086029053	24.4017086029053	27.2142486572266	28.6349048614502	28.6349048614502	31.6412715911865	33.4197006225586	33.4197006225586	34.6614723205566	35.7834014892578	35.7834014892578	35.7834014892578	38.0901222229004	38.0901222229004	38.9868011474609	38.9868011474609	39.863941192627	39.863941192627	40.6938667297363	40.6938667297363	41.522518157959	41.522518157959	42.355411529541	42.355411529541	43.1594657897949	43.1594657897949	43.9800720214844	43.9800720214844	44.4743461608887	44.8153877258301	45.2550048828125	45.5640983581543	45.5640983581543	46.1488838195801	46.1488838195801	46.6219902038574	46.6219902038574	47.0726776123047	47.0726776123047	47.0726776123047	47.5152244567871	47.5152244567871	47.9325141906738	47.8492164611816	48.2879600524902	48.2879600524902	48.2879600524902	48.7044677734375	48.7044677734375	49.0422096252441	49.0422096252441	49.0422096252441	49.1425018310547	49.1365776062012	49.1365776062012	48.8454322814941	48.8454322814941	48.8454322814941	48.0968818664551	47.7115287780762	46.6333045959473	46.6333045959473	46.6333045959473	45.6716270446777	45.6716270446777	45.6716270446777	44.9277992248535	44.9277992248535	44.3895874023438	44.3895874023438	43.9721984863281	43.9721984863281	43.2141723632813	43.2141723632813	42.8886413574219	42.8886413574219	43.0870170593262	42.460880279541	42.460880279541	42.846118927002	42.846118927002	42.6622886657715	42.6622886657715	42.154167175293	42.154167175293	41.9297561645508	41.9297561645508	42.226734161377	42.226734161377	42.2919998168945	42.2919998168945	42.2919998168945	42.4255523681641	42.4255523681641	42.6165885925293	42.6165885925293	42.6165885925293	42.6442985534668	42.6442985534668	42.6025238037109	42.6025238037109
37.4335250854492	32.2115211486816	29.0337295532227	27.9005832672119	28.154748916626	28.8685836791992	28.9814300537109	28.3268756866455	28.0969409942627	27.0107402801514	27.0107402801514	26.3049163818359	26.4358139038086	26.4005126953125	27.6797637939453	26.7716522216797	27.9989376068115	28.0672702789307	28.7671680450439	28.3683929443359	27.8606929779053	26.5006198883057	26.5006198883057	26.0683269500732	26.8561782836914	26.6750240325928	26.493049621582	26.493049621582	25.9225292205811	25.6226596832275	25.3275775909424	25.3590450286865	26.4436817169189	26.4436817169189	26.6391582489014	26.6545581817627	26.6407108306885	26.6407108306885	27.7365398406982	27.794527053833	27.794527053833	28.284273147583	28.284273147583	27.7514266967773	27.7514266967773	27.8272342681885	27.8417186737061	28.5771312713623	28.6848735809326	28.6848735809326	28.2157764434814	27.6737899780273	27.5157871246338	26.5288848876953	26.7214889526367	26.3898468017578	26.3898468017578	25.5341262817383	24.9816036224365	24.6205978393555	24.6205978393555	23.6788578033447	23.4262924194336	23.4262924194336	23.3309936523438	23.4160747528076	23.4160747528076	23.6626739501953	23.6626739501953	24.2929706573486	24.1892395019531	24.1892395019531	23.6107006072998	23.3477802276611	23.3477802276611	23.6225357055664	24.3033199310303	24.3033199310303	25.329870223999	27.7666873931885	27.7666873931885	30.5457515716553	31.6956539154053	31.6956539154053	34.5032348632813	34.5032348632813	35.7834014892578	36.7676429748535	36.7676429748535	36.7676429748535	37.718448638916	38.8500022888184	38.8500022888184	38.8500022888184	39.8101844787598	39.8101844787598	41.522518157959	41.522518157959	42.355411529541	42.355411529541	43.1594657897949	43.1594657897949	43.9800720214844	43.9800720214844	44.8153877258301	44.8153877258301	44.8153877258301	45.5640983581543	45.5640983581543	46.1488838195801	46.1488838195801	46.5998344421387	46.5998344421387	47.0261077880859	47.0261077880859	47.0261077880859	47.4337348937988	47.4337348937988	47.8492164611816	47.8492164611816	48.2879600524902	48.2879600524902	48.4612770080566	48.7044677734375	48.7044677734375	48.8234443664551	48.9909782409668	48.9909782409668	48.9976806640625	48.9976806640625	48.9976806640625	48.5805549621582	48.5805549621582	48.5805549621582	47.7115287780762	47.7115287780762	46.9382019042969	46.6333045959473	46.6333045959473	45.8768196105957	45.6716270446777	45.0229988098145	45.0229988098145	44.3895874023438	44.3895874023438	44.3895874023438	43.4361991882324	43.4361991882324	43.0125617980957	43.2141723632813	42.8886413574219	42.8886413574219	42.460880279541	42.460880279541	42.3078193664551	42.3078193664551	42.6622886657715	42.6622886657715	41.9764251708984	42.154167175293	42.154167175293	41.9297561645508	41.9297561645508	41.7246131896973	41.7246131896973	41.7588920593262	41.7588920593262	42.4255523681641	41.9741859436035	41.9741859436035	42.0997352600098	42.6165885925293	42.6165885925293	42.6442985534668	42.6442985534668	42.6025238037109	42.6025238037109
39.2048835754395	32.2115211486816	29.0337295532227	29.033239364624	29.033239364624	29.3592967987061	28.9814300537109	28.9814300537109	28.6625499725342	27.6801910400391	27.8292827606201	27.2146816253662	27.5964832305908	27.5258483886719	27.6797637939453	27.6797637939453	28.9625949859619	28.7671680450439	28.7671680450439	28.6272125244141	27.8606929779053	27.5910129547119	27.5910129547119	26.9497470855713	26.8561782836914	26.6750240325928	26.6750240325928	27.1937503814697	25.9225292205811	26.5009746551514	26.2927398681641	26.3109512329102	26.3109512329102	26.4436817169189	27.6868133544922	27.7050094604492	27.7089290618896	27.7089290618896	27.7365398406982	28.4600219726563	28.4600219726563	28.284273147583	28.5699996948242	28.229944229126	28.5349578857422	28.4056701660156	28.4056701660156	28.5771312713623	29.4033946990967	29.1542224884033	29.1542224884033	28.0721492767334	27.5157871246338	27.5157871246338	26.7214889526367	27.0024013519287	27.0024013519287	26.5054912567139	25.2511577606201	25.2511577606201	24.6205978393555	23.6788578033447	23.4262924194336	23.4262924194336	23.8121433258057	23.9539585113525	23.9539585113525	24.0873641967773	24.0873641967773	24.2929706573486	24.1892395019531	24.1892395019531	23.6107006072998	23.4721984863281	23.4721984863281	23.3555202484131	23.6378688812256	25.1061401367188	26.1223068237305	26.1223068237305	28.8001041412354	28.8001041412354	31.6956539154053	31.3067035675049	32.8725128173828	32.8725128173828	35.5459594726563	35.5459594726563	36.7676429748535	36.5157012939453	37.718448638916	37.671314239502	38.8500022888184	38.8449516296387	39.8101844787598	39.8101844787598	40.8473091125488	40.8473091125488	41.9157409667969	41.9157409667969	42.8881072998047	42.8881072998047	43.7850952148438	43.7850952148438	44.6564445495605	44.6564445495605	45.4890594482422	45.4890594482422	45.4890594482422	46.1180877685547	46.1180877685547	46.5998344421387	46.5998344421387	46.7857780456543	47.0261077880859	47.1809272766113	47.4337348937988	47.5757484436035	47.5757484436035	48.0105743408203	48.0105743408203	48.4612770080566	48.4612770080566	48.4612770080566	48.8234443664551	48.8234443664551	48.9909782409668	48.9909782409668	48.9523735046387	48.9976806640625	48.9976806640625	48.5805549621582	48.5805549621582	47.9927558898926	47.9927558898926	46.9382019042969	46.9382019042969	46.9382019042969	45.8768196105957	45.8768196105957	45.8768196105957	45.0229988098145	45.0229988098145	43.8474731445313	43.8474731445313	43.8474731445313	43.4361991882324	43.4361991882324	43.0125617980957	43.0125617980957	42.3291015625	42.3291015625	42.460880279541	42.460880279541	42.3078193664551	42.3078193664551	41.9764251708984	41.9764251708984	41.9764251708984	41.7753562927246	42.154167175293	41.9297561645508	41.9297561645508	41.7246131896973	41.7246131896973	41.7588920593262	41.7588920593262	41.9741859436035	41.9741859436035	41.9741859436035	42.0997352600098	42.0997352600098	42.2138710021973	42.2138710021973	42.2138710021973	42.2411231994629	42.2411231994629
37.4107131958008	33.8709373474121	30.3730983734131	30.118444442749	30.3575534820557	30.3575534820557	29.8104343414307	29.7214908599854	28.5220794677734	28.5220794677734	27.8292827606201	27.88108253479	27.5964832305908	28.7391128540039	28.878885269165	28.878885269165	28.9625949859619	29.6878223419189	29.6878223419189	29.604621887207	28.1782474517822	28.1782474517822	27.5910129547119	28.273681640625	28.1082172393799	28.0419750213623	27.5780353546143	27.5780353546143	27.1937503814697	26.5009746551514	27.3621311187744	27.348876953125	27.5853576660156	27.5853576660156	27.6868133544922	27.7050094604492	28.7114391326904	28.7114391326904	28.6354446411133	29.0791244506836	29.0791244506836	28.5699996948242	28.5699996948242	28.5349578857422	28.5349578857422	29.1260356903076	29.1260356903076	29.2830123901367	29.4033946990967	29.4033946990967	29.1542224884033	29.0262699127197	28.0153961181641	28.0153961181641	27.6793041229248	27.0024013519287	27.0024013519287	26.5054912567139	26.1165523529053	24.8025798797607	24.8025798797607	24.336181640625	23.864278793335	23.864278793335	23.8121433258057	23.9539585113525	23.9539585113525	24.0873641967773	24.858304977417	24.858304977417	24.7270584106445	24.7270584106445	24.3355350494385	23.4721984863281	23.4721984863281	23.6378688812256	23.6378688812256	25.1061401367188	25.1061401367188	26.1223068237305	27.6241474151611	27.6241474151611	31.3067035675049	31.3067035675049	32.8725128173828	32.5868186950684	33.9800987243652	33.9800987243652	36.5157012939453	36.5157012939453	37.671314239502	37.671314239502	38.8449516296387	38.8449516296387	39.9141273498535	39.9141273498535	40.8473091125488	41.0868759155273	41.9157409667969	42.209774017334	42.8881072998047	43.2020988464355	43.2020988464355	43.7850952148438	44.6564445495605	44.6564445495605	45.0210151672363	45.4890594482422	45.7918434143066	46.1180877685547	46.3460884094238	46.3460884094238	46.7857780456543	46.7857780456543	47.1809272766113	47.1809272766113	47.1809272766113	47.5757484436035	47.5757484436035	48.0105743408203	48.0105743408203	48.3583183288574	48.3583183288574	48.3583183288574	48.8234443664551	48.8234443664551	48.8234443664551	48.9523735046387	48.9523735046387	48.9976806640625	48.7039985656738	48.7039985656738	48.5805549621582	47.9927558898926	47.9927558898926	46.9382019042969	46.9382019042969	46.9382019042969	45.3790740966797	45.3790740966797	45.3790740966797	44.4964141845703	44.4964141845703	43.8474731445313	43.8474731445313	43.326587677002	43.326587677002	43.0125617980957	43.0125617980957	43.0125617980957	42.3291015625	42.3291015625	42.070858001709	42.070858001709	42.3078193664551	41.7345314025879	41.9764251708984	41.9764251708984	41.7753562927246	41.7753562927246	41.7753562927246	41.4324913024902	41.4324913024902	41.3493461608887	41.3493461608887	41.7588920593262	41.3654594421387	41.4472007751465	41.9741859436035	41.9741859436035	42.0997352600098	42.0997352600098	42.2138710021973	42.2138710021973	42.2138710021973	42.2411231994629	42.2411231994629
37.4107131958008	32.7444190979004	32.7444190979004	31.1654148101807	31.0784702301025	30.6958465576172	30.6958465576172	30.4382762908936	29.3572597503662	29.3572597503662	28.797212600708	29.2066326141357	28.7744445800781	28.7391128540039	30.1287326812744	30.1287326812744	29.9515838623047	29.9515838623047	30.2664585113525	29.604621887207	29.4368667602539	29.4368667602539	28.4826526641846	28.273681640625	28.1082172393799	28.0419750213623	28.9662933349609	28.1601619720459	28.1601619720459	27.7672500610352	27.3621311187744	27.348876953125	28.6973667144775	27.5853576660156	28.8790130615234	28.8818073272705	28.7114391326904	28.7114391326904	29.3125324249268	29.3125324249268	29.4590702056885	29.125696182251	29.125696182251	29.2835083007813	29.2835083007813	29.1260356903076	29.1260356903076	30.1449909210205	30.1576309204102	29.5663547515869	29.5663547515869	29.0262699127197	28.0153961181641	28.0153961181641	28.1925811767578	27.8473205566406	27.8473205566406	26.818359375	26.1165523529053	24.8025798797607	24.8025798797607	24.336181640625	24.3873748779297	23.864278793335	24.2483043670654	24.3050384521484	24.3050384521484	24.6967678070068	24.858304977417	24.858304977417	24.7270584106445	24.7270584106445	24.6933135986328	24.0928974151611	24.0928974151611	23.8176708221436	23.8176708221436	24.2593936920166	26.0308437347412	26.0308437347412	27.6241474151611	27.9382171630859	29.5695514678955	29.5695514678955	32.5868186950684	32.5868186950684	33.9800987243652	33.9800987243652	35.0038185119629	35.0038185119629	36.7238883972168	36.7238883972168	37.896842956543	37.896842956543	39.9141273498535	39.9141273498535	41.0868759155273	41.0868759155273	41.0868759155273	42.209774017334	42.209774017334	43.2020988464355	43.2020988464355	44.1204109191895	44.1204109191895	45.0210151672363	45.0210151672363	45.0210151672363	45.7918434143066	45.7918434143066	46.3460884094238	46.3460884094238	46.7368965148926	46.7368965148926	47.0859069824219	47.0859069824219	47.0859069824219	47.445873260498	47.445873260498	47.8903999328613	47.8903999328613	48.3583183288574	48.3583183288574	48.3583183288574	48.6868934631348	48.6868934631348	48.6868934631348	48.7166862487793	48.7166862487793	48.7166862487793	48.7039985656738	48.7039985656738	47.5618095397949	47.5618095397949	47.5618095397949	46.4660186767578	46.4660186767578	46.4660186767578	45.3790740966797	45.3790740966797	44.6472930908203	44.4964141845703	44.4964141845703	43.8590965270996	43.8590965270996	43.326587677002	43.326587677002	42.4815444946289	42.4815444946289	42.4815444946289	42.1236114501953	42.3291015625	42.070858001709	42.070858001709	41.7345314025879	41.7345314025879	41.586971282959	41.586971282959	41.7753562927246	41.7753562927246	41.4324913024902	41.4324913024902	41.4324913024902	41.3493461608887	41.3493461608887	41.3654594421387	41.3654594421387	41.4472007751465	41.4472007751465	41.4472007751465	41.6428642272949	41.6428642272949	41.7292823791504	41.7292823791504	42.2138710021973	41.8399963378906	41.8399963378906
40.2329063415527	35.1578063964844	32.7246780395508	31.1654148101807	31.0784702301025	32.0044441223145	32.0044441223145	30.4382762908936	30.2145137786865	29.4833011627197	29.5081615447998	29.2066326141357	30.2632350921631	30.1428756713867	30.1428756713867	31.3513927459717	31.0905323028564	31.0905323028564	31.3535709381104	30.0967254638672	30.0967254638672	29.4368667602539	30.000955581665	29.5703678131104	29.4984741210938	29.2482604980469	28.9662933349609	28.9662933349609	28.1601619720459	28.803092956543	28.6062088012695	28.5936183929443	28.6973667144775	28.6973667144775	28.8790130615234	29.9091949462891	29.7349033355713	29.7349033355713	30.0115337371826	30.0115337371826	29.4590702056885	29.4590702056885	29.5341930389404	29.5341930389404	29.9153804779053	29.8871936798096	29.8871936798096	30.1449909210205	30.1576309204102	30.3955383300781	29.5663547515869	29.3669052124023	28.9123935699463	28.9123935699463	28.1925811767578	27.8473205566406	28.292989730835	26.818359375	26.2070598602295	25.523645401001	25.523645401001	24.6067123413086	24.3873748779297	24.3873748779297	24.2483043670654	24.3050384521484	24.3050384521484	25.0463428497314	25.57639503479	25.57639503479	25.5488834381104	25.5488834381104	24.6933135986328	24.0928974151611	24.0928974151611	24.0716953277588	23.8176708221436	24.5357990264893	25.2910861968994	25.2910861968994	27.9382171630859	27.9382171630859	29.5695514678955	29.5695514678955	30.9936962127686	32.5868186950684	33.6898994445801	33.6898994445801	35.0038185119629	35.0038185119629	36.7238883972168	36.7238883972168	37.896842956543	37.896842956543	39.1096343994141	39.1096343994141	40.4778785705566	40.4778785705566	40.4778785705566	41.6340980529785	41.6340980529785	42.7950477600098	42.7950477600098	43.8692169189453	43.8692169189453	45.0210151672363	45.0210151672363	45.698413848877	45.698413848877	45.698413848877	46.2995300292969	46.2995300292969	46.7368965148926	46.7368965148926	47.0859069824219	47.0859069824219	47.2088356018066	47.445873260498	47.445873260498	47.8903999328613	47.8903999328613	48.0648231506348	48.3583183288574	48.4649543762207	48.4649543762207	48.6868934631348	48.6187400817871	48.7166862487793	48.7166862487793	48.4103240966797	48.3523368835449	48.3523368835449	47.5618095397949	47.5618095397949	47.5618095397949	46.8083953857422	46.4660186767578	45.6633796691895	45.6633796691895	45.3790740966797	44.6472930908203	44.6472930908203	43.8590965270996	43.8590965270996	43.8590965270996	42.8234672546387	42.8234672546387	42.4815444946289	42.4815444946289	42.1236114501953	42.1236114501953	42.1236114501953	41.5843505859375	41.5843505859375	41.7345314025879	41.7345314025879	41.586971282959	41.586971282959	41.2816047668457	41.2816047668457	41.1631546020508	41.1631546020508	41.3493461608887	41.3493461608887	41.0245094299316	41.3654594421387	41.3654594421387	41.4472007751465	41.4472007751465	41.4472007751465	41.6428642272949	41.6428642272949	41.7292823791504	41.7292823791504	41.7292823791504	41.8399963378906	41.8399963378906
39.106517791748	34.770923614502	34.770923614502	33.4129905700684	32.3854179382324	32.9730987548828	32.4803733825684	31.6339569091797	31.1218509674072	30.6969547271729	29.5081615447998	30.4108200073242	30.2632350921631	31.6300601959229	31.6300601959229	32.6461181640625	31.3513927459717	31.9138851165771	31.3535709381104	31.4296436309814	30.3679351806641	30.3679351806641	30.000955581665	29.5703678131104	29.4984741210938	30.5603580474854	29.9219570159912	29.5001049041748	29.5001049041748	28.803092956543	28.6062088012695	29.7404632568359	29.9679794311523	29.9679794311523	30.0481719970703	29.9091949462891	29.9091949462891	30.35791015625	30.0115337371826	30.3312168121338	30.0121612548828	30.0121612548828	30.2913665771484	30.2913665771484	29.9153804779053	30.7916011810303	30.7916011810303	30.8924198150635	30.737642288208	30.3955383300781	30.3955383300781	29.3669052124023	28.9123935699463	29.2957305908203	28.9120121002197	28.292989730835	27.7609348297119	27.7609348297119	26.2070598602295	25.523645401001	25.523645401001	24.6067123413086	24.7318630218506	24.7318630218506	24.644926071167	24.7880191802979	24.7880191802979	25.0463428497314	25.57639503479	25.57639503479	25.5488834381104	26.1346950531006	25.6706466674805	24.423807144165	24.423807144165	24.0716953277588	24.0716953277588	24.5357990264893	25.2910861968994	25.2910861968994	26.7683334350586	26.7683334350586	29.542236328125	29.542236328125	30.9936962127686	30.9936962127686	32.2094306945801	33.6898994445801	34.6338920593262	34.6338920593262	35.5133476257324	36.9544677734375	36.9544677734375	38.0575828552246	38.0575828552246	39.1096343994141	39.4338226318359	40.4778785705566	40.7310752868652	41.6340980529785	41.6340980529785	42.7950477600098	42.7950477600098	43.8692169189453	43.8692169189453	44.9313545227051	44.9313545227051	45.698413848877	45.698413848877	45.698413848877	46.2995300292969	46.5043983459473	46.5043983459473	46.8822021484375	46.8822021484375	47.2088356018066	47.2088356018066	47.2088356018066	47.5991706848145	47.5991706848145	48.0648231506348	48.0648231506348	48.0648231506348	48.4649543762207	48.4649543762207	48.6187400817871	48.6187400817871	48.6187400817871	48.4103240966797	48.4103240966797	48.4103240966797	48.3523368835449	47.7979431152344	47.7979431152344	46.8083953857422	46.8083953857422	46.8083953857422	45.6633796691895	45.6633796691895	44.6472930908203	44.6472930908203	44.6472930908203	43.4082336425781	43.4082336425781	43.4082336425781	42.8234672546387	42.8234672546387	42.4020538330078	42.4020538330078	42.1236114501953	42.1236114501953	41.5843505859375	41.5843505859375	41.5843505859375	41.4010810852051	41.4010810852051	41.586971282959	41.1313934326172	41.2816047668457	41.2816047668457	41.1631546020508	41.1631546020508	41.0245094299316	41.0245094299316	41.0245094299316	41.00634765625	41.00634765625	41.0846710205078	41.0846710205078	41.1547737121582	41.1547737121582	41.6428642272949	41.7292823791504	41.3140830993652	41.3975448608398	41.3975448608398	41.8399963378906
42.7619285583496	37.7713050842285	37.7713050842285	33.4129905700684	34.6237449645996	34.6237449645996	32.4803733825684	32.0149383544922	31.4782543182373	30.6969547271729	30.7991790771484	31.8834323883057	31.715087890625	31.715087890625	32.9106407165527	32.6461181640625	33.0279273986816	33.0279273986816	32.0246543884277	31.4296436309814	31.956521987915	31.2929000854492	31.2929000854492	31.0712833404541	30.7443294525146	30.5603580474854	29.9219570159912	29.9219570159912	30.0402431488037	30.0402431488037	29.7397994995117	29.7404632568359	29.9679794311523	29.9679794311523	31.0883255004883	30.9465560913086	30.9465560913086	31.1018581390381	30.3312168121338	30.3312168121338	30.4359645843506	30.4359645843506	30.2913665771484	30.9416446685791	30.8163433074951	31.3506145477295	30.7916011810303	30.8924198150635	30.737642288208	30.7799129486084	30.7799129486084	30.2913646697998	29.2957305908203	29.2957305908203	28.9860305786133	28.9860305786133	27.7609348297119	27.0475521087646	27.0475521087646	25.605749130249	25.605749130249	25.1552143096924	24.7318630218506	24.7318630218506	24.644926071167	25.1181259155273	24.7880191802979	25.7777233123779	26.1462383270264	26.1462383270264	26.1346950531006	26.1346950531006	25.6706466674805	25.3449192047119	24.423807144165	24.6126461029053	24.6350250244141	24.6350250244141	25.7145080566406	25.7145080566406	26.7683334350586	26.7683334350586	28.3410091400146	29.542236328125	30.9065093994141	30.9065093994141	32.2094306945801	32.2094306945801	34.6338920593262	34.6338920593262	35.5133476257324	35.9461364746094	35.9461364746094	38.0575828552246	38.0575828552246	39.4338226318359	39.4338226318359	40.7310752868652	40.7310752868652	41.9053802490234	41.9053802490234	42.7950477600098	43.1268463134766	43.1268463134766	44.0332450866699	44.4778747558594	44.9313545227051	45.3059692382813	45.3059692382813	45.978099822998	45.978099822998	46.5043983459473	46.5043983459473	46.8822021484375	46.8822021484375	47.1477661132813	47.2088356018066	47.2088356018066	47.5991706848145	47.5991706848145	47.9660911560059	47.9660911560059	48.3042945861816	48.3042945861816	48.3042945861816	48.3706398010254	48.3706398010254	48.3706398010254	48.4103240966797	48.4103240966797	48.4103240966797	47.7979431152344	47.7979431152344	47.7979431152344	46.4586486816406	46.4586486816406	45.3255462646484	45.3255462646484	45.3255462646484	44.2667808532715	44.2667808532715	44.2667808532715	43.4082336425781	43.4082336425781	42.893482208252	42.893482208252	42.8234672546387	42.4020538330078	42.4020538330078	41.6865386962891	41.6865386962891	41.6865386962891	41.5843505859375	41.4010810852051	41.4010810852051	41.4010810852051	41.1313934326172	41.1313934326172	41.0271034240723	41.0271034240723	41.1631546020508	40.8590393066406	41.0245094299316	41.0245094299316	41.0245094299316	41.00634765625	41.00634765625	41.0846710205078	41.0846710205078	41.1547737121582	41.1547737121582	41.1547737121582	41.3140830993652	41.3140830993652	41.3975448608398	41.3975448608398	41.3975448608398
47.717342376709	41.8135986328125	37.6209907531738	35.3089179992676	34.6237449645996	34.6237449645996	34.0845375061035	33.170223236084	32.8820648193359	31.4782543182373	31.9702606201172	31.8834323883057	33.1889305114746	33.1889305114746	34.1809425354004	33.4993019104004	33.4993019104004	33.6790657043457	33.2361030578613	32.3583755493164	31.956521987915	31.956521987915	31.2929000854492	32.253604888916	31.9985427856445	31.4915218353271	31.1350860595703	30.3443450927734	30.3443450927734	30.0402431488037	30.7947406768799	30.8944988250732	31.0182647705078	31.0182647705078	31.0883255004883	31.5162124633789	31.5162124633789	31.1018581390381	31.2780704498291	30.8538055419922	31.0019130706787	31.0019130706787	31.6352138519287	30.9416446685791	31.3506145477295	31.3506145477295	31.5587062835693	31.5587062835693	31.3912887573242	30.7799129486084	30.7799129486084	30.655065536499	30.1139430999756	30.1139430999756	28.9860305786133	28.9860305786133	27.8996200561523	27.8996200561523	27.0475521087646	25.605749130249	25.605749130249	25.3404846191406	25.1364688873291	25.1364688873291	25.0317668914795	25.1181259155273	25.1181259155273	25.7777233123779	26.1462383270264	26.852632522583	26.8686008453369	26.8686008453369	25.9913425445557	25.3449192047119	25.3449192047119	24.6126461029053	24.6126461029053	24.6350250244141	25.6186428070068	25.6186428070068	27.1984424591064	27.1984424591064	28.3410091400146	28.3410091400146	30.9065093994141	30.9065093994141	32.0666046142578	32.0666046142578	33.1771430969238	33.1771430969238	35.0161552429199	35.0161552429199	35.9461364746094	37.0345191955566	37.0345191955566	38.6650352478027	38.6650352478027	39.5289764404297	39.5289764404297	41.9053802490234	41.9053802490234	41.9053802490234	43.1268463134766	44.0332450866699	44.0332450866699	44.4778747558594	44.4778747558594	45.3059692382813	45.3059692382813	45.978099822998	45.978099822998	46.4297332763672	46.4297332763672	46.8200874328613	46.8200874328613	47.1477661132813	47.1477661132813	47.1477661132813	47.5289421081543	47.5289421081543	47.9660911560059	47.9660911560059	48.0989189147949	48.3042945861816	48.2781410217285	48.2781410217285	48.3706398010254	48.1365203857422	48.1365203857422	48.0782585144043	48.0782585144043	47.4300994873047	47.4300994873047	47.4300994873047	46.4586486816406	46.4586486816406	45.7784423828125	45.3255462646484	45.3255462646484	44.6607246398926	44.2667808532715	43.6650390625	43.6650390625	43.4082336425781	42.893482208252	42.893482208252	42.893482208252	42.0585136413574	42.0585136413574	41.6865386962891	41.6865386962891	41.4055213928223	41.4055213928223	41.4055213928223	41.0135078430176	41.0135078430176	41.1313934326172	41.1313934326172	41.0271034240723	41.0271034240723	40.8590393066406	40.8590393066406	40.8035430908203	40.8035430908203	40.8035430908203	40.7494163513184	40.7494163513184	40.7459983825684	41.0846710205078	41.1547737121582	41.1547737121582	40.8529663085938	40.925853729248	41.3140830993652	41.3975448608398	41.3975448608398	41.0830345153809
51.6170501708984	41.8135986328125	37.6209907531738	35.9319953918457	35.9319953918457	35.2592506408691	34.3933982849121	34.3933982849121	32.8820648193359	33.2733345031738	33.2733345031738	33.2096900939941	33.2096900939941	34.3742027282715	34.1809425354004	34.5196266174316	34.5196266174316	33.6790657043457	33.2361030578613	33.7381477355957	33.116455078125	32.8198127746582	32.8198127746582	32.253604888916	31.9985427856445	31.4915218353271	31.8036956787109	31.4348087310791	30.8983020782471	30.8983020782471	30.7947406768799	30.8944988250732	31.9983978271484	31.9983978271484	31.9882678985596	32.1987228393555	32.1987228393555	31.2780704498291	31.2780704498291	31.100700378418	31.100700378418	31.0019130706787	31.6352138519287	31.6352138519287	31.9627838134766	31.9627838134766	31.5587062835693	31.5587062835693	31.8633499145508	31.5940761566162	31.5940761566162	30.655065536499	30.655065536499	30.3508396148682	29.6066493988037	29.6066493988037	28.8325824737549	27.8996200561523	27.060941696167	26.3025512695313	26.3025512695313	25.3404846191406	25.1364688873291	25.1364688873291	25.0317668914795	25.1181259155273	26.1868457794189	26.1868457794189	26.852632522583	26.852632522583	26.8686008453369	26.8686008453369	25.9913425445557	25.3449192047119	25.707633972168	25.3274688720703	25.3274688720703	25.2944431304932	25.6186428070068	25.6186428070068	26.8496952056885	27.1984424591064	28.663064956665	28.663064956665	29.7771053314209	29.7771053314209	32.0666046142578	32.0666046142578	33.1771430969238	32.8554573059082	33.8150177001953	35.0161552429199	35.8654479980469	35.8654479980469	37.0345191955566	37.3177909851074	38.6650352478027	39.5289764404297	39.5289764404297	40.8243103027344	40.8243103027344	42.8650932312012	42.8650932312012	43.4673805236816	44.0332450866699	44.4778747558594	45.0682182312012	45.0682182312012	45.8558769226074	45.8558769226074	45.8558769226074	46.4297332763672	46.4297332763672	46.8200874328613	46.9627265930176	46.9627265930176	47.1477661132813	47.3145751953125	47.5289421081543	47.721435546875	47.721435546875	48.0989189147949	48.0989189147949	48.0989189147949	48.2781410217285	48.2781410217285	48.1365203857422	48.1365203857422	48.1365203857422	48.0782585144043	47.6524314880371	47.6524314880371	47.4300994873047	46.8442192077637	46.8442192077637	46.4586486816406	45.7784423828125	45.7784423828125	44.6607246398926	44.6607246398926	44.6607246398926	43.6650390625	43.6650390625	43.6650390625	42.7216987609863	42.7216987609863	42.0585136413574	42.0585136413574	42.0585136413574	41.7009239196777	41.7009239196777	41.4055213928223	41.4055213928223	41.0135078430176	41.0135078430176	41.0135078430176	40.8913764953613	40.8913764953613	41.0271034240723	40.7164497375488	40.8590393066406	40.8590393066406	40.8035430908203	40.8035430908203	40.7494163513184	40.7494163513184	40.7494163513184	40.7459983825684	40.7459983825684	40.8529663085938	40.8529663085938	40.8529663085938	40.925853729248	40.925853729248	41.0830345153809	41.0830345153809	41.0830345153809
50.4210014343262	45.5729637145996	40.6119537353516	38.1907844543457	38.1907844543457	37.2120704650879	36.1064414978027	36.1064414978027	33.6826210021973	33.6826210021973	34.3406105041504	34.3637962341309	34.3637962341309	35.4351005554199	34.9367408752441	34.9367408752441	35.0230407714844	34.6538467407227	34.0208625793457	33.7381477355957	33.116455078125	33.116455078125	33.4549751281738	33.4549751281738	32.8522605895996	32.5292053222656	31.8036956787109	31.4348087310791	31.7908725738525	30.8983020782471	31.6581287384033	31.7572231292725	31.9983978271484	31.9983978271484	32.5290107727051	32.5290107727051	32.1987228393555	31.7795696258545	31.7795696258545	31.5533447265625	31.5533447265625	31.5508823394775	31.5508823394775	32.1220817565918	32.1220817565918	32.1879692077637	32.0381774902344	32.0381774902344	31.8633499145508	31.5940761566162	31.9892292022705	31.5387649536133	31.5387649536133	30.3508396148682	30.3508396148682	29.6744441986084	28.8325824737549	28.8325824737549	27.060941696167	26.3025512695313	26.3583927154541	25.8468608856201	25.5252285003662	25.5252285003662	25.5074615478516	25.7855739593506	25.7855739593506	26.1868457794189	27.3230514526367	27.3230514526367	27.2677917480469	27.2677917480469	26.8545818328857	25.707633972168	25.707633972168	25.3274688720703	25.3274688720703	25.9074001312256	25.2944431304932	26.3237209320068	26.8496952056885	26.8496952056885	28.663064956665	28.663064956665	29.7771053314209	30.0088806152344	30.9954528808594	30.9954528808594	32.8554573059082	32.8554573059082	33.8150177001953	33.8150177001953	34.4565162658691	34.4565162658691	37.3177909851074	37.3177909851074	37.3177909851074	39.3509330749512	39.3509330749512	40.8243103027344	40.8243103027344	42.8650932312012	42.8650932312012	43.4673805236816	43.4673805236816	44.5535163879395	44.5535163879395	45.0682182312012	45.338436126709	45.8558769226074	46.1026420593262	46.4297332763672	46.6001243591309	46.6001243591309	46.9627265930176	46.9627265930176	47.3145751953125	47.3145751953125	47.3145751953125	47.721435546875	47.721435546875	47.721435546875	47.9740600585938	47.9740600585938	48.0971946716309	48.0971946716309	47.9492301940918	47.9492301940918	47.9492301940918	47.6524314880371	47.6524314880371	47.6524314880371	46.8442192077637	46.8442192077637	46.8442192077637	45.7784423828125	45.7784423828125	45.7784423828125	44.7047386169434	44.7047386169434	44.7047386169434	43.6561470031738	43.6561470031738	43.6561470031738	42.7216987609863	42.7216987609863	42.3081359863281	42.0585136413574	41.7009239196777	41.7009239196777	41.7009239196777	41.0843925476074	41.0843925476074	40.8756446838379	41.0135078430176	40.8913764953613	40.8913764953613	40.8913764953613	40.7164497375488	40.7164497375488	40.6668434143066	40.6668434143066	40.8035430908203	40.5882301330566	40.5522727966309	40.7494163513184	40.7494163513184	40.7459983825684	40.7459983825684	40.8529663085938	40.8529663085938	40.8529663085938	40.925853729248	40.925853729248	41.0830345153809	41.0830345153809	41.0830345153809
50.4210014343262	44.5216331481934	44.5216331481934	40.5586738586426	38.8353538513184	37.7503929138184	36.1064414978027	36.1064414978027	35.1792831420898	35.1792831420898	34.3406105041504	35.4039306640625	35.4039306640625	35.4351005554199	35.8661346435547	35.8661346435547	35.0230407714844	34.6538467407227	35.0271034240723	34.6150550842285	34.3952178955078	33.7995643615723	33.7995643615723	33.4549751281738	32.8522605895996	33.1114082336426	32.7423286437988	32.0232810974121	32.0232810974121	31.7908725738525	31.6581287384033	32.5558815002441	32.6732902526855	32.6732902526855	33.0478363037109	33.0478363037109	32.2858695983887	32.2858695983887	31.8079509735107	31.5533447265625	31.9195384979248	32.0158653259277	32.0158653259277	32.4890747070313	32.4890747070313	32.1879692077637	32.1879692077637	32.3649711608887	32.3575553894043	31.9892292022705	31.9892292022705	31.5387649536133	31.7649784088135	31.1181774139404	31.1181774139404	29.6744441986084	28.9151210784912	27.9955501556396	27.9955501556396	26.3583927154541	26.3583927154541	25.8468608856201	25.9720001220703	25.5074615478516	25.5074615478516	26.2863082885742	26.2863082885742	27.0257797241211	27.0257797241211	27.3230514526367	27.640157699585	26.8545818328857	26.8545818328857	26.4477939605713	25.707633972168	25.9628047943115	25.9628047943115	25.9074001312256	25.9074001312256	26.3237209320068	26.8496952056885	27.5177154541016	28.1885223388672	28.1885223388672	30.0088806152344	30.0088806152344	30.9954528808594	30.9954528808594	31.7208385467529	31.7208385467529	33.3360633850098	33.3360633850098	34.4565162658691	34.4565162658691	35.737678527832	35.737678527832	35.737678527832	39.3509330749512	39.3509330749512	40.6682929992676	40.6682929992676	41.8176689147949	41.8176689147949	43.4673805236816	43.3527565002441	44.5535163879395	44.5535163879395	45.338436126709	45.338436126709	46.1026420593262	46.1026420593262	46.1026420593262	46.6001243591309	46.6001243591309	46.9085350036621	46.9085350036621	47.2746620178223	47.2746620178223	47.2746620178223	47.6661186218262	47.6661186218262	47.9740600585938	47.9740600585938	47.9740600585938	48.0971946716309	48.0971946716309	48.0023994445801	47.9492301940918	47.9492301940918	47.7304573059082	47.4919319152832	47.4919319152832	46.7303657531738	46.7303657531738	46.7303657531738	45.754337310791	45.754337310791	45.754337310791	44.7047386169434	44.7047386169434	44.3018989562988	44.3018989562988	43.6561470031738	43.2275581359863	43.2275581359863	42.7216987609863	42.3081359863281	42.3081359863281	41.4792976379395	41.4792976379395	41.4792976379395	41.0843925476074	41.0843925476074	40.8756446838379	40.8756446838379	40.8913764953613	40.6013145446777	40.7164497375488	40.7164497375488	40.7164497375488	40.6668434143066	40.6668434143066	40.5882301330566	40.5882301330566	40.5522727966309	40.5522727966309	40.5522727966309	40.5649833679199	40.5649833679199	40.6018486022949	40.6018486022949	40.7728881835938	40.7728881835938	40.7728881835938	40.846607208252	40.846607208252	40.9669609069824
53.7606964111328	47.933666229248	43.4823722839355	43.4823722839355	41.2445335388184	37.7503929138184	37.7503929138184	36.3801155090332	35.1792831420898	35.6740875244141	35.2446975708008	36.1246757507324	36.1246757507324	36.1712303161621	36.1712303161621	35.8733406066895	35.8733406066895	35.2171287536621	35.0271034240723	34.6150550842285	34.3952178955078	34.7921180725098	34.0895042419434	34.0895042419434	33.7418518066406	33.1114082336426	32.7423286437988	32.8413887023926	32.3638038635254	32.3638038635254	32.3346138000488	32.5558815002441	32.5558815002441	33.1819839477539	33.0478363037109	33.15625	32.7245674133301	32.7245674133301	32.2436637878418	32.2436637878418	31.9195384979248	31.9195384979248	32.4671897888184	32.4890747070313	32.6362915039063	32.4944763183594	32.3649711608887	32.3649711608887	32.3575553894043	32.6321563720703	32.6321563720703	31.7649784088135	31.7649784088135	31.2272109985352	30.5276699066162	30.5276699066162	28.9151210784912	28.9151210784912	27.9955501556396	27.1416778564453	27.1416778564453	25.9720001220703	25.9720001220703	26.0945587158203	26.0945587158203	26.2863082885742	26.2863082885742	27.5012760162354	27.0257797241211	27.640157699585	27.640157699585	26.9483184814453	26.9483184814453	26.4477939605713	26.4477939605713	25.9628047943115	25.9628047943115	26.6795711517334	26.7716960906982	26.7716960906982	27.5177154541016	27.5177154541016	28.1885223388672	28.7853698730469	29.4916896820068	29.4916896820068	30.9713745117188	30.9713745117188	31.7208385467529	31.7208385467529	31.8964691162109	33.3360633850098	34.4565162658691	34.045482635498	34.045482635498	35.737678527832	35.4512672424316	37.3738555908203	37.3738555908203	40.6682929992676	40.6682929992676	41.8176689147949	41.8176689147949	43.3527565002441	43.3527565002441	43.9942665100098	43.9942665100098	45.0972938537598	45.0972938537598	45.90625	45.90625	45.90625	46.4254302978516	46.4254302978516	46.9085350036621	46.9085350036621	47.0536613464355	47.2746620178223	47.4337120056152	47.6661186218262	47.6661186218262	47.7859077453613	47.9740600585938	47.9984893798828	47.9984893798828	48.0023994445801	48.0023994445801	48.0023994445801	47.7304573059082	47.7304573059082	47.4919319152832	47.4919319152832	47.1557464599609	46.7303657531738	46.7303657531738	46.3206977844238	45.754337310791	45.3454551696777	45.3454551696777	44.7047386169434	44.3018989562988	44.3018989562988	43.2275581359863	43.2275581359863	43.2275581359863	42.3081359863281	42.3081359863281	42.307315826416	41.4792976379395	41.4792976379395	41.1437835693359	41.1437835693359	41.0843925476074	40.8756446838379	40.8756446838379	40.6013145446777	40.6013145446777	40.5306739807129	40.5306739807129	40.6668434143066	40.4528427124023	40.4528427124023	40.5882301330566	40.5882301330566	40.5522727966309	40.5522727966309	40.5649833679199	40.5649833679199	40.5649833679199	40.6018486022949	40.6018486022949	40.7728881835938	40.7728881835938	40.7728881835938	40.846607208252	40.846607208252	40.9669609069824
52.3246955871582	52.3246955871582	46.9476890563965	43.5236625671387	41.2445335388184	39.9162330627441	39.9162330627441	38.3794097900391	38.3794097900391	35.6740875244141	35.9886207580566	35.9886207580566	36.1246757507324	36.9586906433105	36.2993278503418	36.2993278503418	36.2943382263184	36.0073127746582	35.6493873596191	35.5200538635254	35.0911293029785	34.7921180725098	34.7921180725098	34.0895042419434	34.2100563049316	33.902660369873	33.1915588378906	32.8413887023926	32.8413887023926	32.3638038635254	32.8818054199219	33.0039710998535	33.0039710998535	33.4935417175293	33.15625	33.15625	32.653980255127	32.653980255127	32.2436637878418	32.4341697692871	32.3646507263184	32.815486907959	32.815486907959	32.6362915039063	32.6362915039063	32.4944763183594	32.5770072937012	32.5770072937012	32.7312126159668	32.7312126159668	32.6321563720703	32.4357376098633	32.4357376098633	31.2272109985352	31.2272109985352	30.681266784668	29.9105777740479	29.9105777740479	28.0204410552979	27.1416778564453	27.1833114624023	26.52516746521	26.52516746521	26.6924743652344	26.0945587158203	27.1630802154541	27.1630802154541	27.5012760162354	28.1410522460938	27.9826602935791	27.9826602935791	27.4941883087158	26.9483184814453	26.7773265838623	26.7773265838623	26.6725006103516	26.6725006103516	26.6795711517334	26.6795711517334	26.7716960906982	27.7346496582031	27.7346496582031	28.7853698730469	28.7853698730469	29.4916896820068	29.4916896820068	30.3502101898193	30.9713745117188	31.2408046722412	31.2408046722412	31.8964691162109	31.8964691162109	32.1394920349121	32.1394920349121	34.045482635498	35.4512672424316	35.4512672424316	37.3738555908203	37.3738555908203	38.6954650878906	40.6682929992676	41.3993492126465	41.3993492126465	43.3527565002441	43.3527565002441	43.9942665100098	43.9942665100098	45.0972938537598	45.0972938537598	45.4183464050293	45.90625	45.90625	46.4254302978516	46.5912055969238	46.5912055969238	47.0536613464355	47.0536613464355	47.4337120056152	47.4337120056152	47.4337120056152	47.7859077453613	47.7859077453613	47.7859077453613	47.9984893798828	47.9984893798828	47.8546485900879	47.8546485900879	47.8546485900879	47.7297477722168	47.7304573059082	47.7304573059082	47.1557464599609	47.1557464599609	47.1557464599609	46.3206977844238	46.3206977844238	46.3206977844238	45.3454551696777	45.3454551696777	45.3454551696777	44.7990760803223	44.7990760803223	43.5306205749512	43.5306205749512	43.5306205749512	42.307315826416	42.307315826416	42.307315826416	41.8360633850098	41.4792976379395	41.1437835693359	41.1437835693359	41.1437835693359	40.6589088439941	40.6589088439941	40.6013145446777	40.6013145446777	40.5306739807129	40.5306739807129	40.4528427124023	40.4528427124023	40.4528427124023	40.4297332763672	40.4297332763672	40.4136772155762	40.4136772155762	40.4298095703125	40.4298095703125	40.5649833679199	40.6018486022949	40.5807991027832	40.678955078125	40.678955078125	40.7728881835938	40.846607208252	40.8632545471191	40.9036598205566
55.2051086425781	50.0120544433594	50.0120544433594	46.1732978820801	41.7870903015137	41.7870903015137	40.2715759277344	38.3794097900391	38.5331001281738	37.0286102294922	36.8636169433594	36.8636169433594	36.9432983398438	36.9586906433105	37.1794052124023	37.1794052124023	36.2943382263184	36.0073127746582	35.6493873596191	35.5200538635254	35.8484268188477	35.1962280273438	34.8381996154785	34.8381996154785	34.2100563049316	33.902660369873	33.9823265075684	33.2376594543457	32.9924774169922	32.9924774169922	32.8818054199219	33.4329376220703	33.4329376220703	33.4935417175293	33.4831504821777	33.4831504821777	33.0907402038574	33.0907402038574	32.4341697692871	32.4341697692871	32.809268951416	32.809268951416	32.815486907959	32.869384765625	32.869384765625	32.5567207336426	32.5567207336426	32.5770072937012	33.0362548828125	33.0362548828125	32.8524475097656	32.4357376098633	32.4776954650879	31.9159755706787	30.681266784668	30.681266784668	29.9105777740479	29.0372409820557	29.0372409820557	27.1833114624023	27.1833114624023	26.52516746521	26.8119964599609	26.6924743652344	26.6924743652344	27.7401123046875	27.1630802154541	28.1410522460938	28.1410522460938	27.9826602935791	28.0082015991211	27.4941883087158	27.4941883087158	26.7773265838623	26.7773265838623	26.6725006103516	27.2936763763428	27.3561496734619	27.3561496734619	27.5146045684814	27.5146045684814	27.7346496582031	28.7969188690186	28.7969188690186	29.8570995330811	29.8570995330811	30.3502101898193	30.3502101898193	30.3253650665283	31.2408046722412	31.2408046722412	31.1109313964844	31.1109313964844	32.1394920349121	32.1394920349121	33.0037078857422	35.4512672424316	36.8744087219238	36.8744087219238	38.6954650878906	38.6954650878906	41.3993492126465	41.3993492126465	42.3321533203125	43.8080940246582	43.8080940246582	44.3585662841797	44.3585662841797	45.4183464050293	45.4183464050293	46.0586547851563	46.0586547851563	46.0586547851563	46.5912055969238	46.5912055969238	46.8136901855469	46.8136901855469	47.2977485656738	47.2977485656738	47.2977485656738	47.5757637023926	47.5757637023926	47.7680816650391	47.7680816650391	47.7680816650391	47.8546485900879	47.8546485900879	47.8007621765137	47.7297477722168	47.7297477722168	47.615062713623	47.2795906066895	47.2795906066895	47.2795906066895	46.5892333984375	46.5892333984375	46.5892333984375	45.7977714538574	45.7977714538574	44.7990760803223	44.7990760803223	44.7990760803223	44.4563903808594	43.5306205749512	43.5306205749512	43.0239372253418	42.307315826416	41.8360633850098	41.8360633850098	41.8360633850098	41.1437835693359	41.1437835693359	40.6589088439941	40.6589088439941	40.6589088439941	40.5067100524902	40.5067100524902	40.5306739807129	40.3267288208008	40.4528427124023	40.4528427124023	40.4528427124023	40.4297332763672	40.4297332763672	40.4136772155762	40.4136772155762	40.4298095703125	40.4298095703125	40.4298095703125	40.5807991027832	40.5807991027832	40.678955078125	40.678955078125	40.678955078125	40.8632545471191	40.8632545471191	40.9036598205566
58.8700141906738	53.8784484863281	49.1963691711426	46.1732978820801	44.0367584228516	44.0367584228516	42.6119117736816	42.6119117736816	38.5331001281738	37.4742164611816	37.4742164611816	37.7709350585938	37.7145652770996	37.5336723327637	37.5336723327637	37.1710090637207	37.1710090637207	36.5445709228516	36.3766670227051	36.0575141906738	35.8484268188477	35.1962280273438	35.1962280273438	34.9122581481934	34.9122581481934	34.3243522644043	33.9823265075684	33.2376594543457	33.2376594543457	33.329158782959	33.2476692199707	33.6123504638672	33.4329376220703	33.6862945556641	33.6862945556641	33.4882316589355	33.4882316589355	33.0907402038574	32.9514770507813	32.9514770507813	33.265796661377	32.809268951416	33.0704650878906	33.0704650878906	32.869384765625	32.7512512207031	32.8746376037598	32.8746376037598	33.0362548828125	33.3072967529297	33.3072967529297	32.4776954650879	32.4776954650879	31.9159755706787	31.5232601165771	31.5232601165771	30.0078048706055	30.0078048706055	29.0372409820557	27.9857158660889	27.9857158660889	27.9857158660889	26.8119964599609	26.8119964599609	27.4612579345703	27.7401123046875	27.7401123046875	28.6284465789795	28.6284465789795	28.0082015991211	28.0082015991211	28.0082015991211	27.5025939941406	27.2862548828125	27.2862548828125	27.2936763763428	27.2936763763428	27.3561496734619	28.0350494384766	28.0350494384766	28.4170017242432	28.4170017242432	28.7969188690186	28.7969188690186	29.6911029815674	29.8570995330811	30.3502101898193	30.1842346191406	30.3253650665283	30.3253650665283	30.3253650665283	31.1109313964844	31.1109313964844	31.3841247558594	31.3841247558594	33.0037078857422	33.0037078857422	36.8744087219238	36.8744087219238	38.6954650878906	38.6954650878906	41.3993492126465	42.3321533203125	42.3321533203125	43.8080940246582	43.8080940246582	44.3585662841797	44.3585662841797	45.1165580749512	45.1165580749512	46.0586547851563	46.0586547851563	46.0586547851563	46.4699668884277	46.4699668884277	46.8136901855469	46.8136901855469	46.8987274169922	47.2977485656738	47.2977485656738	47.5757637023926	47.5757637023926	47.5335083007813	47.7680816650391	47.7190361022949	47.7190361022949	47.8546485900879	47.8007621765137	47.8007621765137	47.7297477722168	47.615062713623	47.2795906066895	47.2795906066895	47.122745513916	46.5892333984375	46.5892333984375	46.5892333984375	45.7977714538574	45.7977714538574	45.6542358398438	44.7990760803223	44.4563903808594	44.4563903808594	44.4563903808594	43.0239372253418	43.0239372253418	43.0239372253418	41.8360633850098	41.8360633850098	41.8360633850098	41.0331153869629	41.0331153869629	40.7569923400879	40.6589088439941	40.5067100524902	40.5067100524902	40.5067100524902	40.3267288208008	40.3267288208008	40.2985076904297	40.2985076904297	40.4297332763672	40.3051109313965	40.3051109313965	40.3250160217285	40.4136772155762	40.4298095703125	40.4298095703125	40.4298095703125	40.5807991027832	40.5807991027832	40.678955078125	40.678955078125	40.678955078125	40.8632545471191	40.8632545471191	40.9036598205566
56.7137031555176	56.7137031555176	52.0731048583984	46.1438407897949	46.1438407897949	44.5062408447266	42.6119117736816	43.1450958251953	40.9584503173828	39.6341667175293	39.6341667175293	37.7709350585938	38.663688659668	38.4674034118652	37.6300926208496	37.6300926208496	37.1710090637207	36.5445709228516	37.0292625427246	36.8394393920898	36.2665138244629	35.9133262634277	35.1927528381348	35.1927528381348	34.9122581481934	34.3243522644043	34.3391532897949	33.9446563720703	33.329158782959	33.329158782959	33.5492515563965	33.6123504638672	33.6123504638672	33.878246307373	33.878246307373	33.8449745178223	33.4882316589355	33.1977272033691	33.1977272033691	33.3384857177734	33.265796661377	33.265796661377	33.455982208252	32.9221000671387	32.9221000671387	32.7512512207031	33.0982055664063	33.0982055664063	33.3920478820801	33.3920478820801	33.3072967529297	33.063304901123	33.063304901123	32.0584259033203	32.0584259033203	31.5232601165771	31.01438331604	30.0078048706055	28.9608821868896	28.9608821868896	27.9857158660889	27.49924659729	27.49924659729	27.49924659729	27.4612579345703	27.4612579345703	28.5657043457031	28.6284465789795	28.6284465789795	28.5249099731445	28.5249099731445	27.5025939941406	27.5025939941406	27.2862548828125	27.6681137084961	27.7803573608398	27.7803573608398	27.9687175750732	27.9687175750732	28.0350494384766	28.0350494384766	28.4170017242432	28.4170017242432	29.3372421264648	29.6911029815674	29.6911029815674	30.1842346191406	30.1842346191406	30.1842346191406	29.6262531280518	29.6262531280518	29.7561511993408	29.7561511993408	31.3841247558594	31.3841247558594	33.0037078857422	32.3098411560059	34.2579536437988	34.2579536437988	38.0060043334961	38.0060043334961	39.5605125427246	41.8070869445801	41.8070869445801	42.641529083252	42.641529083252	44.3585662841797	43.9931449890137	45.1165580749512	45.1165580749512	45.6387977600098	45.6387977600098	45.6387977600098	46.4699668884277	46.4699668884277	46.4699668884277	46.8987274169922	46.8987274169922	46.8987274169922	47.3200073242188	47.3200073242188	47.5335083007813	47.5335083007813	47.5335083007813	47.7190361022949	47.7190361022949	47.8007621765137	47.8007621765137	47.8007621765137	47.615062713623	47.615062713623	47.615062713623	47.122745513916	47.122745513916	47.122745513916	46.5892333984375	46.4751892089844	46.4751892089844	45.6542358398438	45.6542358398438	45.6542358398438	44.4563903808594	44.4563903808594	44.4563903808594	43.321834564209	43.321834564209	43.321834564209	41.881046295166	41.881046295166	41.881046295166	41.0331153869629	41.0331153869629	40.7569923400879	40.7569923400879	40.3806457519531	40.3806457519531	40.3806457519531	40.3267288208008	40.3267288208008	40.2985076904297	40.2985076904297	40.3051109313965	40.3051109313965	40.3051109313965	40.3250160217285	40.3250160217285	40.4324111938477	40.4324111938477	40.4324111938477	40.5465393066406	40.5465393066406	40.842845916748	40.842845916748	40.842845916748	40.953426361084	40.953426361084	41.085823059082
60.2198181152344	55.7240409851074	52.0731048583984	48.468677520752	48.468677520752	46.7372398376465	43.1450958251953	43.1450958251953	41.6139106750488	41.6139106750488	40.8119735717773	39.5593376159668	38.663688659668	38.4674034118652	38.7212600708008	37.6345062255859	37.6345062255859	37.2950897216797	37.0292625427246	36.8394393920898	36.2665138244629	35.9133262634277	35.9989280700684	35.4107093811035	35.4107093811035	35.130199432373	34.3391532897949	33.9446563720703	33.8094367980957	33.8094367980957	33.5492515563965	33.5492515563965	33.8649024963379	33.8649024963379	34.0318489074707	33.8449745178223	33.8449745178223	33.7429618835449	33.7429618835449	33.3384857177734	33.6575317382813	33.6575317382813	33.455982208252	33.3154792785645	33.3154792785645	32.9951019287109	32.9951019287109	33.0982055664063	33.7572212219238	33.7572212219238	33.4761924743652	33.4761924743652	33.063304901123	32.804759979248	31.7591495513916	31.7591495513916	31.01438331604	31.01438331604	29.9301891326904	29.9301891326904	28.0148181915283	28.0148181915283	28.0094432830811	28.0094432830811	28.0909748077393	29.1346435546875	29.1346435546875	28.5657043457031	28.9867630004883	28.9867630004883	28.5249099731445	28.0285816192627	28.0285816192627	27.6681137084961	27.6681137084961	27.7803573608398	27.7803573608398	28.3527774810791	27.9687175750732	28.5391006469727	28.5391006469727	28.7010097503662	28.7010097503662	29.3372421264648	29.3372421264648	29.8193874359131	29.8194103240967	29.8194103240967	29.8194103240967	29.6262531280518	29.6262531280518	29.7561511993408	28.9590244293213	29.5584411621094	29.5584411621094	32.3098411560059	32.3098411560059	34.2579536437988	34.2579536437988	38.0060043334961	38.0060043334961	39.5605125427246	41.8070869445801	41.8070869445801	42.641529083252	42.641529083252	43.9931449890137	44.4300842285156	44.4300842285156	45.1846122741699	45.1846122741699	45.6387977600098	45.6387977600098	45.9380226135254	45.9380226135254	45.9380226135254	46.8987274169922	46.6146049499512	46.9032402038574	46.9032402038574	47.3200073242188	47.5335083007813	47.5335083007813	47.5335083007813	47.3095855712891	47.3095855712891	47.661693572998	47.661693572998	47.661693572998	47.7124137878418	47.7124137878418	47.7124137878418	47.443775177002	47.443775177002	47.122745513916	46.4751892089844	46.4751892089844	46.4751892089844	46.3565673828125	46.3565673828125	46.3565673828125	45.0374641418457	45.0374641418457	45.0374641418457	43.321834564209	43.321834564209	43.321834564209	41.881046295166	41.881046295166	41.4136161804199	41.4136161804199	41.4136161804199	40.7569923400879	40.7569923400879	40.3806457519531	40.3806457519531	40.3806457519531	40.2713050842285	40.2713050842285	40.2985076904297	40.2167663574219	40.2464790344238	40.3051109313965	40.3051109313965	40.3250160217285	40.3250160217285	40.4324111938477	40.4324111938477	40.5465393066406	40.5465393066406	40.5465393066406	40.842845916748	40.842845916748	40.842845916748	40.953426361084	40.953426361084	41.085823059082
62.6623268127441	58.8032035827637	51.3748664855957	51.3748664855957	48.592601776123	46.7372398376465	47.7646751403809	46.0668601989746	45.2395973205566	45.2395973205566	40.8119735717773	41.1157531738281	40.2764701843262	39.2043037414551	38.7212600708008	38.7212600708008	37.6345062255859	38.275707244873	38.1777763366699	37.5958251953125	37.2319831848145	36.3614692687988	35.9989280700684	35.9989280700684	35.4107093811035	35.6549873352051	35.2059707641602	34.1797523498535	34.1797523498535	33.9989547729492	33.8202514648438	33.8202514648438	34.0733451843262	34.0733451843262	34.0318489074707	33.9927177429199	33.9927177429199	33.7429618835449	34.0334968566895	33.8752746582031	34.1466293334961	34.1466293334961	33.6482849121094	33.6482849121094	33.3154792785645	33.4211921691895	32.9951019287109	33.625	33.7572212219238	33.7572212219238	34.0565986633301	33.247917175293	33.247917175293	32.804759979248	32.804759979248	31.7591495513916	31.0131282806396	31.0131282806396	29.9301891326904	29.7861557006836	28.8459529876709	28.8459529876709	28.0094432830811	28.0094432830811	28.9387722015381	28.9387722015381	29.1346435546875	29.7693042755127	29.5586833953857	29.5586833953857	28.53688621521	28.53688621521	28.0285816192627	28.0750274658203	27.6681137084961	28.2268924713135	28.2268924713135	28.3527774810791	28.3527774810791	28.5391006469727	28.5391006469727	29.1093730926514	29.3656902313232	29.3656902313232	29.8193874359131	29.8193874359131	29.8193874359131	29.8194103240967	29.3957138061523	29.061429977417	29.061429977417	28.9590244293213	28.9590244293213	29.5584411621094	28.9461612701416	30.0779819488525	30.0779819488525	33.4548149108887	33.4548149108887	35.3818054199219	38.6330108642578	38.6330108642578	39.9467887878418	41.8070869445801	42.641529083252	42.7836799621582	43.9931449890137	44.4300842285156	44.4300842285156	45.1846122741699	45.1846122741699	45.4973182678223	45.4973182678223	45.9380226135254	45.9380226135254	45.9380226135254	46.6146049499512	46.6146049499512	46.6146049499512	46.9032402038574	46.9032402038574	47.0245552062988	47.0245552062988	47.3095855712891	47.3095855712891	47.3095855712891	47.3061332702637	47.661693572998	47.6880302429199	47.6880302429199	47.7124137878418	47.6979789733887	47.6979789733887	47.443775177002	47.443775177002	47.059326171875	47.059326171875	47.059326171875	46.3565673828125	46.3565673828125	46.3565673828125	46.0825004577637	45.0374641418457	44.409595489502	44.409595489502	43.321834564209	42.6501922607422	42.6501922607422	42.6501922607422	41.4136161804199	41.4136161804199	40.7897834777832	40.7897834777832	40.7897834777832	40.5656394958496	40.3806457519531	40.2713050842285	40.2713050842285	40.2713050842285	40.2167663574219	40.2167663574219	40.2464790344238	40.2464790344238	40.2464790344238	40.330005645752	40.330005645752	40.4212684631348	40.4212684631348	40.5465393066406	40.7027702331543	40.7027702331543	40.9009208679199	40.842845916748	40.842845916748	41.2471351623535	41.2471351623535	41.3391227722168
